# .PCD v0.7 - Point Cloud Data file format
VERSION 0.7
FIELDS x y z
SIZE 4 4 4
TYPE F F F
COUNT 1 1 1
WIDTH 1506
HEIGHT 1
VIEWPOINT 0 0 0 1 0 0 0
POINTS 1506
DATA ascii
2.564564 0.43078703 0.62256163
2.5649195 0.46945345 0.61616975
2.5658791 0.50065827 0.61371648
2.5653238 0.52391595 0.60248971
2.5654991 0.54740304 0.60363388
2.5656888 0.57886249 0.61337453
2.5660052 0.61842251 0.60736769
2.5661764 0.64229763 0.60871649
2.5663469 0.66628057 0.61011791
2.5666051 0.70248246 0.61232752
2.5668657 0.73892337 0.6146462
2.5670393 0.76338381 0.6162653
2.5672169 0.78797626 0.6179412
2.5673926 0.81270391 0.61967325
2.5711925 1.3157704 0.61126894
2.5713971 1.3444251 0.61409366
2.5716031 1.3733479 0.61699206
2.5513461 -1.4499397 0.64811331
2.5515542 -1.4206363 0.64498043
2.5528631 -1.2228453 0.65135396
2.553057 -1.1955587 0.6487065
2.5532498 -1.1684912 0.64613008
2.5547311 -0.94632792 0.65222389
2.5550032 -0.90841597 0.64918214
2.6254816 -0.83109182 0.6592831
2.625752 -0.7933929 0.65668398
2.6260185 -0.7559517 0.65420276
2.5564046 -0.71172488 0.63528275
2.5566092 -0.67573106 0.64541727
2.5907543 -0.6484493 0.63936269
2.6268952 -0.63309729 0.64688838
2.6270688 -0.60884249 0.64559311
2.6272411 -0.58468258 0.64435214
2.6274126 -0.56061357 0.64316517
2.5581484 -0.45278323 0.6461851
2.5583136 -0.42973712 0.64525127
2.5584767 -0.40675548 0.64436907
2.6288278 -0.34739408 0.65956008
2.6290774 -0.31234589 0.65854275
2.6293273 -0.27738902 0.65762907
2.6294932 -0.25413907 0.65708858
2.6296589 -0.23092552 0.65659928
2.559938 -0.20222403 0.63872391
2.5601792 -0.16843191 0.638183
2.6303201 -0.13836294 0.65515113
2.6305666 -0.10374174 0.65482283
2.6308131 -0.069146641 0.6545952
2.6309767 -0.04609473 0.65451032
2.6311436 -0.02304706 0.65447658
2.6313906 0.01152497 0.6545254
2.5617013 0.044881027 0.63727665
2.5619411 0.078567594 0.63754427
2.5621834 0.112284 0.63791043
2.6322956 0.13846688 0.65564322
2.6324608 0.16160862 0.65601182
2.632709 0.19637871 0.6566664
2.6329563 0.23121509 0.65742266
2.6331244 0.25449002 0.65799594
2.5849006 0.29561728 0.6471402
2.6332908 0.27780715 0.65862036
2.563637 0.31595775 0.64248502
2.5637987 0.33880058 0.64324456
2.5639627 0.36169955 0.6440559
2.635257 0.53819841 0.64390671
2.5795326 0.5503974 0.64375055
2.5656044 0.58672076 0.64643747
2.5658479 0.6183846 0.64416909
2.6361265 0.65980572 0.65055996
2.636301 0.68444216 0.65205753
2.6364784 0.70919484 0.65361285
2.6366549 0.73406726 0.65522552
2.6368346 0.75906533 0.65689725
2.6295936 0.79451865 0.65764236
2.5673771 0.82510471 0.64560115
2.5676436 0.86255217 0.64845473
2.5695996 1.1219585 0.64519423
2.5718014 1.3160819 0.63804603
2.571291 1.3443695 0.64081627
2.5714989 1.3732921 0.64384127
2.5512412 -1.4498801 0.67524356
2.5514512 -1.4205788 0.67197996
2.590476 -1.4127262 0.67897284
2.6215291 -1.4000106 0.68387157
2.6217368 -1.3707446 0.68076742
2.6219463 -1.3417429 0.67774409
2.6221511 -1.312994 0.67479825
2.6223526 -1.2844908 0.67192882
2.5527573 -1.2227945 0.67762828
2.5529525 -1.1955098 0.67487448
2.5531464 -1.1684439 0.67219436
2.5898738 -1.1579248 0.67916757
2.6232395 -1.1453792 0.68526012
2.6234336 -1.1182077 0.68272597
2.6236246 -1.0912337 0.68026209
2.623817 -1.0644528 0.67786843
2.6240077 -1.0378575 0.67554313
2.6241944 -1.011441 0.67328447
2.5546265 -0.94628906 0.67761838
2.5548971 -0.90837818 0.67445785
2.6129899 -0.90333146 0.67477882
2.625066 -0.88184214 0.67587668
2.625247 -0.85638756 0.67396605
2.6253753 -0.8310582 0.68495286
2.6256442 -0.79336023 0.68225217
2.6259115 -0.75592089 0.67967445
2.5562484 -0.71168137 0.67243874
2.5564525 -0.6756897 0.68249822
2.5905995 -0.64841062 0.67675829
2.6267872 -0.6330713 0.67207509
2.6269619 -0.60881776 0.67072964
2.6271338 -0.5846588 0.66944033
2.6273055 -0.56059074 0.66820717
2.6275625 -0.52466011 0.66646862
2.627764 -0.48888037 0.67735136
2.558043 -0.4527646 0.670506
2.5582085 -0.42971945 0.66953707
2.5583708 -0.40673867 0.66862148
2.6259897 -0.39393842 0.67292154
2.6286047 -0.37081861 0.67273343
2.6287186 -0.34737962 0.68438411
2.6289697 -0.31233308 0.68332875
2.6292186 -0.27737755 0.6823805
2.629384 -0.25412852 0.68181956
2.6295514 -0.23091608 0.68131232
2.5597782 -0.20221142 0.67483747
2.5600209 -0.16842149 0.67426634
2.6302102 -0.13835718 0.67980909
2.6304588 -0.10373747 0.67946887
2.6307054 -0.069143809 0.67923278
2.6308682 -0.046092834 0.67914456
2.6310337 -0.023046097 0.6791091
2.6312804 0.011524487 0.67915976
2.5615435 0.044878259 0.67330885
2.5617836 0.078562759 0.67359161
2.5620248 0.11227705 0.67397827
2.6321859 0.1384611 0.68031973
2.6323528 0.16160199 0.68070263
2.6326003 0.19637057 0.68138164
2.632849 0.23120567 0.68216676
2.6330149 0.25447944 0.68276113
2.5847886 0.29560444 0.6714955
2.6331832 0.27779582 0.68340951
2.5635312 0.3159447 0.66666651
2.5636928 0.3387866 0.66745472
2.5638587 0.36168486 0.66829705
2.6341586 0.40697616 0.6754719
2.6344128 0.44251999 0.67696279
2.6346366 0.46632141 0.66550601
2.6348062 0.49019051 0.66660786
2.6350632 0.52615857 0.6683712
2.5793684 0.55036235 0.6807341
2.5654354 0.58274364 0.67902625
2.5656903 0.61834657 0.68117821
2.6360161 0.65977812 0.67588907
2.6361928 0.68441415 0.67744559
2.6363685 0.70916528 0.679061
2.6365471 0.73403722 0.68073696
2.6367249 0.75903374 0.68247336
2.6294847 0.79448569 0.68324757
2.5672712 0.82507074 0.67073774
2.5675387 0.86251688 0.67370254
2.6379242 0.91195142 0.66819566
2.6381109 0.93796438 0.67029834
2.6382971 0.96414304 0.67246568
2.6385806 1.0037581 0.67584956
2.6388674 1.0437348 0.67936867
2.5691137 1.0685612 0.66612834
2.6119974 1.0596577 0.67481482
2.5693045 1.0951358 0.66863936
2.569494 1.1219124 0.67122036
2.63995 1.1803138 0.6654287
2.6401482 1.2082602 0.66812074
2.6403501 1.2364367 0.67088681
2.6405525 1.2648492 0.67372751
2.571697 1.3160285 0.66475517
2.6248806 1.3143606 0.67550063
2.6407568 1.2935057 0.67664456
2.5711877 1.3443156 0.6676417
2.5713944 1.3732364 0.67079306
2.5511384 -1.4498217 0.70248246
2.5513461 -1.4205203 0.69908655
2.5903718 -1.4126694 0.70636225
2.6214206 -1.3999525 0.71145761
2.6216311 -1.3706894 0.70822912
2.6218388 -1.3416878 0.70508331
2.6220434 -1.31294 0.70201856
2.6222479 -1.2844396 0.69903421
2.5526533 -1.2227447 0.70401216
2.5528481 -1.1954609 0.70115095
2.5530417 -1.168396 0.6983664
2.5897694 -1.157878 0.70561159
2.6231329 -1.1453326 0.71194118
2.6233246 -1.1181612 0.70930767
2.6235175 -1.0911891 0.70674843
2.6237092 -1.064409 0.7042613
2.623898 -1.0378141 0.70184499
2.6240878 -1.0113999 0.69949925
2.5545211 -0.94625008 0.70312232
2.5547926 -0.90834111 0.69984305
2.6128316 -0.90327674 0.71354711
2.6249044 -0.88178778 0.71470731
2.6250844 -0.85633451 0.71268672
2.6252663 -0.83102369 0.71073258
2.625536 -0.79332757 0.70793045
2.6258018 -0.7558893 0.70525533
2.5560892 -0.71163708 0.70981193
2.5563469 -0.67566168 0.7073648
2.5904427 -0.6483714 0.71437269
2.6266801 -0.63304549 0.69737071
2.6268525 -0.60879242 0.69597399
2.626972 -0.58462274 0.70729101
2.6271422 -0.56055588 0.70598775
2.627399 -0.52462745 0.70415092
2.6275997 -0.48884979 0.71499729
2.557884 -0.45273644 0.70720714
2.558049 -0.42969263 0.70618498
2.5582123 -0.40671346 0.70521963
2.6258345 -0.39391512 0.71032375
2.6284432 -0.37079585 0.7101236
2.6286094 -0.34736517 0.70931923
2.62886 -0.31232005 0.70822543
2.6291106 -0.27736616 0.70724308
2.6292741 -0.25411791 0.70666116
2.6294415 -0.23090644 0.70613545
2.5596204 -0.20219894 0.71117121
2.5598612 -0.16841096 0.71056879
2.6301019 -0.13835147 0.70457786
2.6303482 -0.10373313 0.70422471
2.6305969 -0.069140956 0.70398051
2.6307597 -0.046090931 0.70388907
2.6309252 -0.023045145 0.70385224
2.6311722 0.011524013 0.70390487
2.5613844 0.044875477 0.70956004
2.5616231 0.078557834 0.70985758
2.5618637 0.11226999 0.71026492
2.6320779 0.13845542 0.70510715
2.6322443 0.16159533 0.70550394
2.6324916 0.19636247 0.70620751
2.6327391 0.23119602 0.707021
2.6329069 0.25446901 0.70763749
2.5846756 0.29559153 0.69595963
2.6330733 0.27778423 0.70830905
2.5633729 0.31592518 0.70315778
2.5635343 0.33876568 0.70398909
2.5636985 0.36166227 0.70487708
2.6339953 0.40695092 0.71301383
2.6342487 0.44249249 0.71458745
2.6344724 0.46629232 0.7031337
2.6346431 0.49016017 0.70429814
2.634901 0.52612621 0.70616144
2.5792587 0.55033892 0.70553559
2.5653298 0.58271968 0.70376658
2.5655842 0.618321 0.70599669
2.6359081 0.65975106 0.7013281
2.6360846 0.68438601 0.70294309
2.6362605 0.70913625 0.70461935
2.6364396 0.7340073 0.70635855
2.6366172 0.75900275 0.70816022
2.6293752 0.79445267 0.70896304
2.5671659 0.82503688 0.69598281
2.5674331 0.86248142 0.69905913
2.6378167 0.91191429 0.69421226
2.6380036 0.93792623 0.69639683
2.63819 0.96410388 0.69864863
2.638473 1.0037172 0.70216411
2.6387577 1.0436915 0.70581973
2.5689561 1.0684956 0.7050882
2.6118884 1.0596135 0.70108843
2.5691988 1.0950907 0.69467294
2.5693905 1.1218671 0.69735497
2.6397867 1.1802408 0.70574784
2.6400404 1.2082108 0.69507188
2.6402409 1.2363856 0.69794917
2.6404452 1.2647978 0.70090503
2.571538 1.3159473 0.70503348
2.6247718 1.3143061 0.70274907
2.6406479 1.2934524 0.70393932
2.5710838 1.3442612 0.69457376
2.5712886 1.3731798 0.69785172
2.5510318 -1.4497612 0.72983325
2.5512412 -1.4204619 0.7263056
2.5902672 -1.4126122 0.73386502
2.6213152 -1.3998963 0.73915905
2.6215241 -1.3706334 0.73580432
2.6217289 -1.3416317 0.73253524
2.621937 -1.3128867 0.72935224
2.6221397 -1.2843865 0.72625113
2.5525472 -1.2226939 0.73050916
2.5527437 -1.195412 0.72754085
2.5529349 -1.1683471 0.7246508
2.5896637 -1.157831 0.73216945
2.6230242 -1.1452851 0.73873675
2.6232173 -1.1181154 0.73600459
2.62341 -1.0911444 0.73334885
2.6236014 -1.0643653 0.73076808
2.6237895 -1.0377712 0.7282607
2.6239793 -1.011358 0.72582662
2.5544147 -0.94621074 0.72874016
2.5546854 -0.90830296 0.7253412
2.6127262 -0.90324032 0.73954576
2.6247959 -0.88175136 0.74074751
2.6249778 -0.8562997 0.73865372
2.6251576 -0.83098924 0.73662782
2.6254263 -0.79329449 0.7337234
2.6256938 -0.75585824 0.73095131
2.5559838 -0.71160775 0.73488057
2.5562396 -0.67563343 0.73234653
2.5903385 -0.64834523 0.7396031
2.6265159 -0.63300598 0.73554212
2.6266885 -0.60875434 0.73406899
2.626807 -0.58458602 0.74537134
2.6269782 -0.56052089 0.74399817
2.6272347 -0.52459466 0.74206233
2.6274908 -0.48882952 0.74024898
2.5577247 -0.45270827 0.74413991
2.5578897 -0.42966589 0.74306434
2.5580535 -0.40668818 0.74204862
2.6257303 -0.3938995 0.73541158
2.6283331 -0.37078032 0.73520279
2.6284997 -0.34735069 0.73437011
2.6287503 -0.312307 0.73323762
2.6290007 -0.27735454 0.73222053
2.6291659 -0.25410742 0.73161852
2.6293311 -0.23089674 0.73107374
2.5595124 -0.2021904 0.73554713
2.5597539 -0.16840391 0.73492432
2.6299913 -0.13834566 0.72946107
2.6302395 -0.10372883 0.72909594
2.630486 -0.069138043 0.7288425
2.6306512 -0.046089027 0.72874844
2.6308165 -0.023044195 0.72871041
2.6310632 0.011523536 0.72876477
2.5612764 0.044873584 0.73388082
2.5615165 0.078554571 0.73418897
2.5617573 0.11226533 0.73461038
2.6319692 0.1384497 0.73000962
2.6321342 0.16158856 0.73041993
2.6323819 0.19635428 0.7311486
2.6326306 0.23118649 0.73199111
2.632797 0.25445837 0.73262894
2.5845051 0.29557201 0.73288488
2.6329615 0.27777243 0.73332375
2.56321 0.31590512 0.73987812
2.563374 0.33874446 0.74075347
2.5635386 0.36163971 0.74168801
2.6338859 0.40693402 0.73819536
2.6341376 0.4424738 0.739824
2.6343093 0.46626344 0.74099088
2.634479 0.49012965 0.74221778
2.6347356 0.52609318 0.74418098
2.5791473 0.5503152 0.73045182
2.5652218 0.58269513 0.72862107
2.5654755 0.61829478 0.73092973
2.6357987 0.6597237 0.72688061
2.6359758 0.68435776 0.72855467
2.6361518 0.70910698 0.73029202
2.6363308 0.73397708 0.73209465
2.6365077 0.75897121 0.7339617
2.6292658 0.79441965 0.73479378
2.5670056 0.82498538 0.73407829
2.5673261 0.86244541 0.72452885
2.6376548 0.91185832 0.73346376
2.6378393 0.93786788 0.73577124
2.6380811 0.96406406 0.724944
2.6383643 1.0036758 0.72859192
2.6386495 1.0436486 0.73238516
2.5687981 1.0684298 0.74427646
2.6117792 1.0595692 0.72747523
2.5690393 1.0950229 0.73395002
2.5692308 1.1217973 0.73678362
2.6396236 1.1801678 0.7462945
2.6398778 1.2081363 0.73572439
2.6401331 1.2363352 0.72512424
2.6403346 1.2647449 0.7281943
2.5713787 1.3158656 0.74553901
2.6246624 1.3142514 0.73011035
2.6405416 1.2934003 0.73134792
2.5709238 1.3441776 0.73519671
2.5711844 1.3731242 0.72502315
2.5509274 -1.4497018 0.75730258
2.551136 -1.4204035 0.75364202
2.5901618 -1.4125547 0.76148635
2.6212065 -1.3998382 0.76697898
2.6214149 -1.3705763 0.76349783
2.6216235 -1.3415776 0.76010686
2.6218269 -1.3128315 0.75680268
2.622031 -1.2843333 0.75358534
2.5524428 -1.2226439 0.75712538
2.5526369 -1.195362 0.75404817
2.5527773 -1.168275 0.76431596
2.5895581 -1.1577836 0.75884622
2.6229138 -1.1452368 0.76565176
2.6231086 -1.1180692 0.7628206
2.6233003 -1.0910988 0.76006788
2.6234913 -1.0643206 0.75739294
2.6236835 -1.0377293 0.75479525
2.623816 -1.0112951 0.76555574
2.5543039 -0.94192916 0.76268464
2.5545259 -0.90824628 0.76382804
2.6126196 -0.90320343 0.76566482
2.6246848 -0.88171411 0.76690793
2.6248689 -0.85626417 0.76474082
2.6250482 -0.83095461 0.76264322
2.6253176 -0.79326165 0.7596364
2.6255858 -0.75582713 0.75676662
2.555876 -0.71157771 0.76006913
2.5561333 -0.67560536 0.75744873
2.5902331 -0.64831889 0.76495475
2.6263516 -0.63296634 0.77395433
2.6265256 -0.60871661 0.77240467
2.6266971 -0.58456153 0.77091974
2.6268697 -0.5604977 0.7694999
2.627126 -0.52457297 0.76749766
2.6273797 -0.48880887 0.76562148
2.5576177 -0.45268929 0.76892358
2.5577805 -0.42964759 0.76781172
2.557946 -0.40667111 0.76676261
2.6256254 -0.39388376 0.76062012
2.6282232 -0.37076479 0.76040268
2.6283894 -0.34733611 0.75954139
2.6286407 -0.31229401 0.75837028
2.6288896 -0.27734286 0.7573179
2.6290569 -0.2540969 0.75669593
2.6292222 -0.23088719 0.75613236
2.5594058 -0.20218199 0.76004487
2.5596457 -0.16839679 0.75940084
2.6298265 -0.13833699 0.76702803
2.630074 -0.10372232 0.76664394
2.630321 -0.069133714 0.76637763
2.6304872 -0.046086155 0.76627898
2.63065 -0.023042738 0.76623833
2.6308973 0.011522809 0.76629555
2.5611696 0.044871714 0.75832301
2.561409 0.07855127 0.75864124
2.5616484 0.11226055 0.75907618
2.6318581 0.13844386 0.75503123
2.632025 0.16158186 0.75545615
2.632272 0.19634607 0.75620961
2.6325197 0.23117675 0.75708067
2.6326861 0.25444767 0.75774044
2.5843337 0.2955524 0.77005088
2.6328528 0.27776095 0.75845957
2.5631022 0.31589183 0.76451981
2.5632663 0.33873025 0.76542437
2.5634291 0.36162427 0.76638949
2.6337759 0.40691704 0.76349783
2.6340282 0.44245541 0.7651825
2.6341996 0.46624404 0.76638931
2.6343677 0.49010894 0.76765776
2.6346259 0.52607131 0.76968884
2.5790367 0.5502916 0.75548804
2.5650609 0.58265859 0.76614469
2.5653687 0.61826903 0.75598335
2.6356344 0.65968257 0.76544929
2.635865 0.68432897 0.75428462
2.6360431 0.70907772 0.75608391
2.6362185 0.73394579 0.75794917
2.6363995 0.75894004 0.75988334
2.6291542 0.79438585 0.76074374
2.5668442 0.82493353 0.77241385
2.5671654 0.86239147 0.76297247
2.6374903 0.9118014 0.77295351
2.6376743 0.93780917 0.77538508
2.6379166 0.96400392 0.76462471
2.6382546 1.0036342 0.75513774
2.6385412 1.0436058 0.75906962
2.5686893 1.0683846 0.77056146
2.6116691 1.0595244 0.75397992
2.5688803 1.094955 0.77346623
2.5690711 1.1217276 0.7764523
2.6395149 1.1801193 0.77348566
2.6397128 1.2080609 0.77661473
2.6399143 1.2362328 0.77982992
2.6400242 1.2362841 0.75241607
2.6402273 1.2646935 0.75560218
2.5712712 1.3158107 0.77270216
2.6245532 1.3141967 0.75758958
2.6404307 1.2933459 0.75887346
2.5707641 1.3440942 0.77605802
2.5710242 1.3730388 0.76601607
2.550823 -1.4496424 0.78489494
2.5509779 -1.4203155 0.79489386
2.5900562 -1.4124972 0.7892313
2.621098 -1.3997803 0.7949236
2.6213076 -1.3705201 0.79131597
2.6215136 -1.3415214 0.78780067
2.6217186 -1.3127773 0.78437656
2.6218672 -1.2842531 0.79483366
2.5523348 -1.2225921 0.78386414
2.5524769 -1.1952872 0.79405808
2.5526175 -1.1682019 0.80423087
2.5894525 -1.1577365 0.78564698
2.6228049 -1.1451893 0.7926923
2.6229992 -1.1180224 0.78976095
2.6231909 -1.0910532 0.78691095
2.6233816 -1.0642761 0.7841416
2.6235175 -1.0376637 0.79484439
2.6236508 -1.0112315 0.80553508
2.5541003 -0.95033455 0.79807645
2.5543659 -0.90818936 0.80256623
2.6125126 -0.90316647 0.79190952
2.624578 -0.88167816 0.79319543
2.624758 -0.85622799 0.7909528
2.6249387 -0.83092004 0.78878379
2.6252079 -0.79322851 0.7856738
2.6254201 -0.75577945 0.79573941
2.555768 -0.71154767 0.78538311
2.5559719 -0.67556268 0.79535395
2.5901275 -0.64829248 0.79043263
2.6262417 -0.63293982 0.79973108
2.6264145 -0.60869092 0.7981295
2.6265864 -0.58453691 0.79659522
2.6267583 -0.56047398 0.79512793
2.6270146 -0.52455074 0.79305899
2.62727 -0.48878849 0.79112077
2.5575087 -0.45267001 0.79383445
2.5576727 -0.42962947 0.79268688
2.5578368 -0.40665373 0.79160339
2.6255202 -0.393868 0.78595418
2.628113 -0.37074926 0.78572804
2.6282785 -0.34732148 0.78483784
2.6284757 -0.3122744 0.79632187
2.6287255 -0.27732551 0.79521716
2.6288912 -0.25408089 0.79456353
2.6290553 -0.23087251 0.79397142
2.5592427 -0.20216911 0.79704523
2.5594835 -0.16838613 0.79637021
2.6296606 -0.13832827 0.80484867
2.6299078 -0.10371576 0.80444551
2.6301551 -0.069129348 0.80416614
2.6303201 -0.046083227 0.80406231
2.6304836 -0.023041278 0.80401981
2.6307304 0.011522079 0.80407977
2.5610065 0.044868853 0.79523957
2.5612464 0.078546286 0.79557353
2.5614867 0.11225347 0.79602993
2.6316924 0.13843516 0.79281569
2.6318583 0.16157165 0.79326159
2.6321063 0.19633372 0.79405296
2.6323547 0.23116225 0.79496783
2.6325212 0.25443172 0.79566067
2.5842187 0.29553929 0.7949968
2.6326864 0.2777434 0.79641533
2.5629942 0.31587854 0.78928834
2.563158 0.33871594 0.79022217
2.5633211 0.36160904 0.79121852
2.6336646 0.40689984 0.78892606
2.633918 0.4424369 0.79066718
2.6340878 0.46622425 0.79191363
2.6342585 0.49008864 0.79322517
2.6345148 0.52604908 0.79532319
2.5788693 0.55025584 0.79329371
2.5648992 0.58262187 0.80392182
2.5652077 0.61823022 0.79381561
2.6354699 0.65964139 0.80426985
2.6356997 0.68428606 0.79312992
2.6358776 0.70903319 0.79502189
2.6361096 0.73391551 0.78392917
2.6362886 0.75890815 0.78592908
2.6290431 0.79435229 0.78681874
2.5667367 0.8248989 0.79813915
2.5670042 0.86233729 0.80166715
2.6373777 0.9117626 0.7994467
2.6375661 0.93777072 0.80196297
2.6377521 0.96394378 0.80455589
2.6380894 1.0035713 0.79520547
2.6384308 1.0435622 0.78587747
2.5685825 1.0683403 0.79697359
2.6115031 1.0594572 0.79398549
2.5687737 1.0949095 0.79997802
2.5689631 1.1216805 0.8030659
2.6394045 1.1800699 0.80080259
2.6396046 1.2080114 0.80404282
2.6398046 1.2361813 0.80737108
2.6401181 1.2646413 0.78313231
2.5711629 1.3157551 0.79999119
2.6244426 1.3141413 0.78519154
2.640322 1.2932928 0.78652298
2.570658 1.3440386 0.8034662
2.5708644 1.3729533 0.80725861
2.5507147 -1.4495809 0.81261438
2.5508175 -1.420226 0.83640528
2.5899503 -1.4124395 0.81710511
2.6209893 -1.3997222 0.82299799
2.6211984 -1.3704631 0.8192628
2.6214042 -1.3414655 0.81562322
2.6215544 -1.312695 0.82599568
2.6217034 -1.2841729 0.83634239
2.5521755 -1.2225158 0.82423311
2.5523169 -1.1952121 0.83432937
2.5525081 -1.1681519 0.83101517
2.5892925 -1.157665 0.82610828
2.6226957 -1.1451416 0.81986284
2.6228898 -1.1179758 0.81683099
2.623081 -1.0910075 0.81388319
2.6232181 -1.0642097 0.82452488
2.6233516 -1.037598 0.83515501
2.6235416 -1.0111893 0.83236384
2.553987 -0.94605225 0.83244979
2.5542562 -0.90815037 0.82856667
2.6124048 -0.90312916 0.81828475
2.6244669 -0.88164085 0.81961256
2.6246483 -0.85619223 0.81729579
2.6248288 -0.83088523 0.81505442
2.6250427 -0.79317856 0.82499164
2.6252537 -0.75573146 0.83497542
2.5556068 -0.71150285 0.82361764
2.5558088 -0.67551959 0.83352339
2.5900211 -0.64826584 0.81604153
2.6261292 -0.6329127 0.82563972
2.6263041 -0.60866529 0.82398695
2.6264749 -0.58451211 0.82240266
2.6266472 -0.56045032 0.82088798
2.6269031 -0.52452844 0.81875181
2.6271582 -0.48876765 0.81675076
2.557399 -0.45265061 0.81887752
2.5575652 -0.42961138 0.81769443
2.5577285 -0.40663654 0.8165766
2.6253617 -0.39384422 0.82421869
2.6279461 -0.37072572 0.82397896
2.6281137 -0.3472997 0.82304603
2.6283088 -0.31225458 0.83453816
2.6285579 -0.27730784 0.8333801
2.6287243 -0.25406477 0.83269536
2.6288891 -0.23085792 0.83207506
2.5590801 -0.20215628 0.8343128
2.5593197 -0.16837534 0.83360577
2.6295483 -0.13832235 0.83023936
2.6297963 -0.10371136 0.82982373
2.6300428 -0.069126397 0.82953531
2.6302094 -0.04608129 0.82942879
2.6303723 -0.023040304 0.82938468
2.6306195 0.011521592 0.82944667
2.5608423 0.044865977 0.8324222
2.5610828 0.078541279 0.83277202
2.561322 0.11224625 0.83324933
2.6315262 0.13842641 0.83086389
2.6316895 0.16156127 0.8313303
2.6319389 0.19632122 0.83216012
2.6321869 0.23114753 0.83311886
2.6323538 0.25441554 0.83384508
2.5841029 0.29552603 0.82007498
2.6325188 0.2777257 0.83463591
2.5628309 0.31585839 0.82670665
2.56305 0.33870167 0.81515187
2.5632124 0.36159369 0.81617957
2.6334879 0.40293631 0.82285166
2.6338077 0.44241834 0.81628293
2.6339757 0.4662044 0.81756932
2.6341462 0.49006772 0.81892323
2.6344042 0.52602696 0.82108974
2.5786996 0.55021966 0.83136272
2.5647902 0.58259708 0.82928348
2.5650458 0.61819124 0.8319118
2.6353559 0.65961289 0.83032525
2.635534 0.68424308 0.83223778
2.6357093 0.70898795 0.8342222
2.6359434 0.73386919 0.82315958
2.6361208 0.75885987 0.82525915
2.6264188 0.79774743 0.82138318
2.5666285 0.82486415 0.8239969
2.5668957 0.86230081 0.82763904
2.6372674 0.91172445 0.82607251
2.6374555 0.93773144 0.82867247
2.6376405 0.96390301 0.83135146
2.6379232 1.003508 0.83553463
2.6382637 1.043496 0.82634926
2.5684757 1.0682958 0.8235172
2.611336 1.0593894 0.834252
2.5686629 1.0948622 0.82662034
2.5688565 1.1216339 0.82981253
2.6392941 1.1800206 0.828251
2.6394944 1.207961 0.83160239
2.6396952 1.2361301 0.83504498
2.6398976 1.2645355 0.83858079
2.6400092 1.264589 0.81079042
2.5710557 1.3157003 0.82741183
2.624332 1.314086 0.81292164
2.640213 1.2932394 0.81430078
2.5705497 1.343982 0.83100569
2.5707569 1.3728958 0.83492827
2.5505552 -1.4494903 0.85446393
2.5507107 -1.4201665 0.86426198
2.5898433 -1.4123812 0.8451128
2.6208785 -1.399663 0.85120678
2.6210873 -1.370405 0.84734344
2.621294 -1.341409 0.84357947
2.6213901 -1.3126128 0.86788666
2.6215923 -1.2841184 0.86419648
2.5520141 -1.2224385 0.86487418
2.5522079 -1.1951611 0.86135906
2.5524027 -1.1681036 0.85793865
2.5891314 -1.1575929 0.86684269
2.6225865 -1.145094 0.84716886
2.6227784 -1.1179284 0.84403527
2.6229167 -1.0909393 0.85461295
2.6230521 -1.0641425 0.86518043
2.6232426 -1.037555 0.86221254
2.6234298 -1.0111463 0.85932994
2.5538783 -0.94601202 0.85871148
2.5541484 -0.90811211 0.85470611
2.6122971 -0.90309197 0.84479588
2.6243556 -0.88160342 0.84616578
2.6245368 -0.85615581 0.84377378
2.6246629 -0.83083266 0.85473317
2.6248758 -0.79312813 0.86458373
2.6251423 -0.75569946 0.86131686
2.5554433 -0.71145725 0.86212718
2.5556993 -0.67549062 0.85915446
2.5898604 -0.64822561 0.85472965
2.6260202 -0.63288647 0.85168743
2.6261914 -0.60863918 0.84998125
2.6263654 -0.58448774 0.84834802
2.6265354 -0.56042641 0.84678477
2.6267846 -0.52051735 0.85299474
2.6269932 -0.48873696 0.85547185
2.5572357 -0.45262173 0.85672021
2.5574012 -0.42958385 0.85548216
2.5575638 -0.40661034 0.85431242
2.6252015 -0.39382017 0.86275887
2.6277785 -0.37070209 0.86250556
2.6279461 -0.34727752 0.86152905
2.628196 -0.31224114 0.86020029
2.6284451 -0.27729595 0.8590067
2.6286118 -0.25405386 0.85830092
2.6287766 -0.23084806 0.8576616
2.55897 -0.20214757 0.85934347
2.5592091 -0.16836807 0.85861504
2.6294372 -0.13831651 0.85576993
2.6296842 -0.10370694 0.8553412
2.6299317 -0.069123477 0.85504425
2.6300962 -0.046079308 0.85493374
2.6302595 -0.023039317 0.85488838
2.6305065 0.011521098 0.85495228
2.5607338 0.044864077 0.85739672
2.5609727 0.078537889 0.85775638
2.5612135 0.11224149 0.85824865
2.6314132 0.13842045 0.85641295
2.6315765 0.16155434 0.85689384
2.6318259 0.19631281 0.85774922
2.6320741 0.23113763 0.85873747
2.6322408 0.25440463 0.85948592
2.5839865 0.29551274 0.8452906
2.6324065 0.27771387 0.86030132
2.5626669 0.31583819 0.86440343
2.5628862 0.33867997 0.85282224
2.5630474 0.36157042 0.85389709
2.6333945 0.41079429 0.85760242
2.6336393 0.44239008 0.85498095
2.6338086 0.46617484 0.85632873
2.6340363 0.49004728 0.84475881
2.6342921 0.52600467 0.84699309
2.5785863 0.55019546 0.85692632
2.5646811 0.58257234 0.85478437
2.5649357 0.61816472 0.85749316
2.6352453 0.65958518 0.8565203
2.6354215 0.68421388 0.85849261
2.6355975 0.70895785 0.86053979
2.6357758 0.73382252 0.86266369
2.6359541 0.75881183 0.86486423
2.6312196 0.79082185 0.857436
2.5665193 0.8248291 0.84999186
2.5667872 0.86226445 0.85374922
2.6371579 0.9116866 0.85283571
2.637341 0.93769073 0.85551828
2.6375303 0.96386278 0.85828549
2.6378114 1.0034655 0.86260366
2.6380982 1.0434306 0.86709523
2.5683665 1.0682504 0.85019672
2.6112239 1.0593439 0.86127901
2.5685563 1.0948169 0.85340136
2.5687466 1.121586 0.85669583
2.6391835 1.179971 0.85583603
2.6393826 1.2079098 0.85929871
2.6395855 1.2360786 0.86285663
2.6397865 1.2644823 0.86650974
2.5709474 1.3156449 0.85496879
2.6241646 1.3140022 0.85478586
2.6401029 1.2931854 0.8422119
2.5704412 1.3439254 0.85868227
2.570647 1.3728373 0.86273503
2.5503941 -1.4493988 0.89659566
2.5506022 -1.4201062 0.89226162
2.5897355 -1.4123224 0.87325972
2.6207678 -1.399604 0.87955612
2.6209776 -1.3703476 0.87556446
2.6211286 -1.3413243 0.88579494
2.6212778 -1.3125566 0.89600348
2.6214833 -1.2840651 0.89219487
2.5519052 -1.2223864 0.89215857
2.5521009 -1.195111 0.88853317
2.5522933 -1.1680535 0.8850041
2.5890231 -1.1575445 0.89418995
2.6224732 -1.1450446 0.87461406
2.622613 -1.1178579 0.88512504
2.6227484 -1.0908692 0.89562607
2.6229413 -1.0640975 0.89247483
2.6231315 -1.037511 0.88941324
2.6233187 -1.0111034 0.88643962
2.5537686 -0.94597137 0.88511693
2.5540404 -0.90807366 0.88098896
2.612134 -0.90303552 0.88484693
2.6241882 -0.88154721 0.88628054
2.6243703 -0.85610157 0.88377553
2.6244938 -0.83077919 0.89469725
2.6247635 -0.79309416 0.89116991
2.6250305 -0.75566733 0.88780278
2.5553339 -0.71142679 0.88799256
2.5555906 -0.67546189 0.88493085
2.5896986 -0.64818507 0.89370555
2.6259065 -0.63285905 0.87787658
2.6260793 -0.60861313 0.87611848
2.6262536 -0.58446282 0.87443507
2.6263671 -0.56039053 0.88591695
2.6265769 -0.52845079 0.88820928
2.6268237 -0.48870543 0.89447975
2.5570748 -0.45259321 0.89485407
2.55724 -0.42955676 0.89356083
2.5574026 -0.40658471 0.89233899
2.6250939 -0.39380404 0.88864481
2.6276646 -0.37068602 0.88838184
2.6278336 -0.34726268 0.88737655
2.6280823 -0.31222764 0.88600743
2.6283321 -0.27728403 0.88477826
2.628499 -0.25404298 0.88405144
2.6286638 -0.23083813 0.88339287
2.558862 -0.20213903 0.88452101
2.559104 -0.16836116 0.88377225
2.6293259 -0.13831066 0.88144493
2.6295717 -0.10370249 0.88100296
2.629818 -0.069120489 0.88069671
2.6299832 -0.046077326 0.88058311
2.6301477 -0.023038337 0.88053691
2.6303947 0.011520607 0.88060266
2.5606258 0.044862185 0.88251722
2.5608664 0.078534633 0.88288796
2.5611055 0.11223676 0.88339418
2.6312995 0.13841447 0.88210654
2.6314652 0.1615475 0.88260263
2.6317129 0.19630435 0.88348305
2.6319613 0.23112772 0.8845011
2.6321261 0.25439355 0.88527137
2.5838115 0.29549271 0.88340187
2.6322932 0.27770191 0.88611174
2.5625596 0.31582496 0.8897295
2.5627227 0.33865842 0.89078188
2.5628858 0.36154762 0.89190519
2.6332169 0.40683064 0.89199817
2.6334701 0.44236165 0.89396673
2.6336389 0.4661448 0.89537573
2.6338668 0.49001575 0.88379705
2.6341133 0.52197027 0.88149738
2.5784724 0.5501712 0.88263452
2.5645704 0.58254707 0.88042903
2.5648251 0.61813807 0.88321924
2.6351328 0.65955698 0.88285863
2.6353071 0.68418419 0.88489091
2.6354852 0.70892769 0.88700181
2.6356621 0.73379087 0.8891905
2.6358423 0.75877964 0.89145941
2.628593 0.79421616 0.89246678
2.566411 0.82479429 0.87612987
2.5666764 0.8622272 0.88000184
2.6370449 0.9116475 0.87974012
2.6372309 0.93765152 0.88250834
2.6374156 0.96382093 0.88536137
2.6377006 1.0034235 0.88981706
2.6379871 1.0433867 0.89445019
2.5682571 1.0682049 0.87701821
2.6111112 1.0592982 0.88844949
2.5684474 1.0947704 0.88032401
2.5686381 1.1215386 0.8837226
2.6390729 1.1799215 0.88356316
2.6392717 1.2078592 0.88713795
2.6394715 1.2360253 0.89081013
2.6396754 1.2644291 0.89458251
2.570837 1.3155884 0.88266695
2.6346219 1.3000413 0.88854986
2.5703347 1.3438696 0.88650203
2.5705395 1.3727797 0.89068574
2.5502841 -1.4493362 0.92488039
2.5504954 -1.4200467 0.92041069
2.5895736 -1.4122341 0.91577274
2.6206589 -1.3995457 0.90805197
2.6208668 -1.3702898 0.90393049
2.6209631 -1.3412397 0.92830539
2.6211674 -1.3125013 0.92427039
2.6213703 -1.2840097 0.92034072
2.5517967 -1.2223344 0.91959298
2.5519919 -1.1950599 0.91585582
2.5521839 -1.1680034 0.91221809
2.5889146 -1.157496 0.92168736
2.6223083 -1.1449724 0.91607827
2.6224444 -1.117786 0.92651021
2.6226382 -1.0908234 0.92316753
2.6228282 -1.0640516 0.91991836
2.623018 -1.037466 0.91676241
2.6232085 -1.0110611 0.91369867
2.5536599 -0.94593108 0.91167223
2.5539298 -0.90803432 0.90741974
2.6119692 -0.90297866 0.92519563
2.6240196 -0.88149059 0.9266935
2.6241996 -0.85604584 0.92407346
2.6243823 -0.83074385 0.92154008
2.62465 -0.79305995 0.91790628
2.6249187 -0.75563508 0.91443861
2.5552278 -0.71139723 0.91401005
2.5554838 -0.67543364 0.91085845
2.5895889 -0.64815766 0.91988969
2.6257951 -0.63283223 0.9042148
2.6259127 -0.60857457 0.91562366
2.6260843 -0.58442521 0.91386348
2.6262028 -0.56035548 0.92535073
2.6264582 -0.52443963 0.92294264
2.6267128 -0.4886848 0.92068672
2.5569632 -0.45257348 0.92047751
2.5571282 -0.42953801 0.91914725
2.5572934 -0.40656734 0.91789126
2.624985 -0.39378768 0.91468143
2.6275547 -0.3706705 0.91441041
2.6277237 -0.34724817 0.91337574
2.6279728 -0.31221461 0.91196668
2.628222 -0.2772724 0.91070127
2.6283884 -0.25403228 0.909953
2.6285529 -0.2308284 0.90927505
2.5587511 -0.20213027 0.90984887
2.5589929 -0.16835386 0.9090786
2.629215 -0.13830481 0.90727001
2.6294615 -0.10369815 0.90681541
2.6297088 -0.069117621 0.90650052
2.6298738 -0.046075407 0.90638345
2.6300366 -0.023037363 0.90633529
2.6302838 0.011520122 0.90640306
2.5605142 0.044860229 0.9077875
2.5607548 0.078531206 0.90816891
2.5609944 0.11223189 0.90868974
2.631191 0.13840877 0.90795189
2.6313546 0.1615407 0.90846175
2.6316028 0.19629616 0.90936828
2.6318524 0.23111816 0.91041642
2.6320179 0.25438306 0.91120952
2.5836351 0.29547253 0.92181373
2.6321852 0.27769053 0.91207457
2.5624492 0.31581137 0.91520673
2.5626104 0.33864355 0.91628855
2.5627759 0.36153212 0.91744488
2.6331062 0.40681359 0.91813266
2.633359 0.442343 0.92015868
2.6335299 0.46612552 0.9216097
2.6336994 0.4899846 0.92313558
2.6340215 0.52994925 0.91706723
2.5783589 0.55014694 0.90849274
2.5644636 0.58252293 0.90622497
2.5647171 0.61811203 0.90909642
2.6350212 0.65952909 0.9093464
2.6351962 0.6841554 0.91143996
2.6353726 0.70889735 0.91361356
2.6355493 0.73375946 0.91586781
2.6357284 0.75874686 0.91820437
2.628479 0.79418182 0.91924196
2.5662351 0.8206045 0.9107818
2.5665672 0.86219049 0.90640372
2.6369317 0.91160828 0.90679222
2.6371195 0.93761194 0.90964621
2.637305 0.96378046 0.91258717
2.6375885 1.0033808 0.91717947
2.637872 1.0433412 0.92195398
2.5681477 1.0681593 0.90398687
2.6109974 1.059252 0.91576886
2.5683367 1.0947232 0.90739393
2.5685294 1.1214912 0.91089773
2.6389599 1.179871 0.91143698
2.6391599 1.2078079 0.91512501
2.63936 1.2359731 0.91891307
2.6395621 1.2643749 0.92280388
2.5707288 1.315533 0.91051322
2.6318259 1.3034414 0.92601407
2.570225 1.3438122 0.91446871
2.5704317 1.3727223 0.9187851
2.5501783 -1.4492761 0.95332193
2.5503869 -1.4199862 0.94871378
2.5894105 -1.4121451 0.95859212
2.6205463 -1.3994857 0.93669832
2.6207554 -1.3702315 0.93244714
2.620851 -1.3411824 0.95685112
2.6210551 -1.3124452 0.95269191
2.6212575 -1.2839545 0.94864118
2.551686 -1.2222815 0.94718194
2.5518806 -1.1950078 0.94333243
2.5520761 -1.1679541 0.93958682
2.588805 -1.157447 0.94934011
2.6221387 -1.1448985 0.95784962
2.622334 -1.117739 0.95430791
2.6225252 -1.0907764 0.95086396
2.6227155 -1.0640059 0.9475174
2.622906 -1.0374217 0.94426703
2.6230946 -1.0110171 0.94111067
2.5535536 -0.9458918 0.93838346
2.5538242 -0.90799683 0.93400669
2.6118579 -0.90294009 0.9523021
2.6239104 -0.88145393 0.95384485
2.6240897 -0.85601002 0.95114779
2.6242721 -0.83070898 0.94854009
2.6245413 -0.79302704 0.94480026
2.624809 -0.75560355 0.94123083
2.5551174 -0.71136653 0.94018245
2.5553732 -0.67540443 0.93694055
2.5894797 -0.6481303 0.94623142
2.6256266 -0.63279164 0.94403195
2.6257434 -0.60853535 0.95544016
2.6259146 -0.58438742 0.95360327
2.6260879 -0.56033093 0.95184731
2.6263447 -0.52441692 0.94937074
2.6265986 -0.48866355 0.94705009
2.5568514 -0.45255369 0.94625938
2.5570161 -0.42951915 0.94489169
2.5571811 -0.40654951 0.94360059
2.6248758 -0.39377132 0.94087464
2.6274436 -0.37065482 0.94059515
2.6276083 -0.34723291 0.93952924
2.6278594 -0.31220117 0.93808055
2.6281099 -0.2772606 0.9367795
2.6282742 -0.25402126 0.93600893
2.6284409 -0.23081857 0.93531245
2.5586393 -0.20212144 0.93533307
2.5588703 -0.16459417 0.94300056
2.6290431 -0.13829577 0.94631886
2.6292906 -0.10369141 0.94584507
2.6295364 -0.069113083 0.94551611
2.6297016 -0.04607239 0.94539404
2.6298656 -0.023035865 0.94534421
2.6301122 0.011519372 0.94541484
2.5603468 0.044857293 0.94600821
2.5605865 0.07852605 0.94640541
2.5608258 0.1122245 0.94694799
2.6310768 0.13840275 0.9339506
2.6312401 0.16153368 0.934475
2.6314888 0.19628766 0.93540764
2.6317384 0.23110814 0.93648589
2.6319034 0.25437203 0.93730146
2.5835164 0.29545897 0.94763094
2.6320693 0.27767831 0.93819076
2.5623362 0.31579745 0.94084066
2.5624995 0.33862892 0.94195354
2.5626633 0.36151624 0.94314164
2.6329918 0.40679586 0.94442272
2.633245 0.44232386 0.94650704
2.6334157 0.46610531 0.9479996
2.6335857 0.48996347 0.94956934
2.633842 0.52591473 0.95208091
2.5782433 0.55012226 0.93450558
2.5642967 0.58248502 0.94522917
2.564606 0.61808521 0.93512791
2.6349101 0.65950125 0.93598896
2.6350858 0.68412673 0.93814409
2.6352639 0.70886821 0.94038206
2.6354401 0.73372906 0.94270217
2.635617 0.75871485 0.94510645
2.628366 0.79414761 0.94617367
2.566148 0.82884288 0.94703269
2.5664043 0.86213577 0.94631779
2.6368196 0.9115696 0.93399793
2.6370044 0.93757099 0.93693644
2.6371925 0.96373928 0.93996656
2.6374745 1.0033374 0.94469613
2.6377597 1.0432967 0.94961452
2.5679836 1.0680912 0.94474816
2.6108837 1.0592059 0.94324291
2.5682278 1.0946769 0.93461782
2.5684204 1.1214435 0.93822664
2.6388474 1.1798208 0.93946409
2.6390455 1.2077556 0.94326472
2.6392479 1.2359207 0.9471702
2.6394506 1.2643214 0.95118093
2.5706189 1.3154768 0.93851173
2.6317115 1.3033848 0.95448864
2.5701144 1.3437544 0.94258863
2.5703199 1.3726625 0.94703734
2.550066 -1.4492123 0.98192209
2.550276 -1.4199245 0.97717631
2.5893011 -1.4120854 0.98735207
2.6204336 -1.3994254 0.96550179
2.6205871 -1.3701435 0.97553778
2.6207368 -1.3411239 0.98555762
2.6209443 -1.3123896 0.9812749
2.6211462 -1.2838999 0.97710246
2.5515802 -1.2222308 0.97493374
2.5517766 -1.194959 0.97097212
2.5519691 -1.1679051 0.9671157
2.5886946 -1.1573976 0.97715402
2.6220303 -1.1448511 0.98591405
2.6222234 -1.1176918 0.98226768
2.6224153 -1.0907307 0.97872323
2.6226087 -1.0639626 0.97527975
2.6227975 -1.0373788 0.97193348
2.6229854 -1.010975 0.96868443
2.5534425 -0.94585055 0.96525347
2.5536575 -0.90793753 0.97420645
2.6117465 -0.90290165 0.97957152
2.6237957 -0.88141543 0.98115742
2.6239786 -0.85597372 0.97838444
2.6241589 -0.83067316 0.97570127
2.6244278 -0.79299283 0.97185439
2.6246946 -0.75557053 0.96818221
2.5550046 -0.71133512 0.9665159
2.5552521 -0.67138165 0.97161579
2.5893693 -0.6481027 0.9727357
2.6254563 -0.63275057 0.98417252
2.6256282 -0.60850865 0.98220122
2.625803 -0.58436257 0.98031414
2.6259737 -0.56030655 0.978508
2.6262293 -0.52439392 0.97596169
2.6264842 -0.48864225 0.97357631
2.5567389 -0.45253378 0.97220504
2.5569041 -0.42950034 0.97080004
2.5570681 -0.40653154 0.96947318
2.6247661 -0.39375487 0.96722966
2.6273279 -0.37063849 0.96694022
2.6274948 -0.34721789 0.96584529
2.6277442 -0.31218749 0.96435541
2.6279366 -0.2772423 0.97622025
2.6281018 -0.25400457 0.97541761
2.6282687 -0.23080346 0.97469193
2.5584698 -0.20210806 0.97388577
2.5586655 -0.17208393 0.97744185
2.62887 -0.13828667 0.98569435
2.6291175 -0.10368458 0.98520088
2.6293635 -0.069108546 0.98485821
2.6295285 -0.046069361 0.98473114
2.6296933 -0.023034357 0.98467952
2.6299403 0.011518618 0.98475313
2.5601764 0.044854309 0.98455691
2.5604172 0.078520857 0.98497069
2.5606565 0.11221709 0.98553544
2.6309037 0.13839367 0.97327256
2.6310673 0.16152307 0.97381902
2.6313159 0.19627476 0.97479093
2.6315653 0.23109294 0.97591448
2.6317298 0.25435525 0.97676426
2.5833964 0.29544523 0.97361177
2.6319551 0.27766624 0.96446908
2.5622249 0.31578371 0.96663815
2.5623865 0.33861399 0.96778101
2.5625505 0.36150032 0.96900171
2.6328764 0.40677804 0.97087526
2.6331298 0.44230452 0.97301799
2.6333008 0.46608496 0.97455239
2.633471 0.48994213 0.97616619
2.6337276 0.5258919 0.97874832
2.5780683 0.55008495 0.97384888
2.5641282 0.58244669 0.98455936
2.5644388 0.61804497 0.9745
2.634737 0.65945792 0.97627366
2.6349719 0.68409717 0.96500754
2.6351471 0.70883673 0.96730846
2.6353271 0.73369759 0.96969646
2.6355045 0.75868243 0.97216976
2.6282518 0.79411316 0.97326684
2.5659692 0.82465225 0.9822135
2.5662372 0.86207968 0.9865554
2.6366525 0.9115119 0.9751274
2.6368937 0.93753165 0.96438754
2.6370819 0.96369886 0.96750647
2.6373639 1.0032953 0.97237462
2.6376495 1.0432532 0.97743726
2.5678196 1.0680228 0.9858318
2.6107695 1.0591595 0.97087705
2.5680647 1.0946074 0.97577429
2.5683112 1.1213958 0.96571505
2.6387391 1.1797724 0.96765149
2.6389382 1.2077063 0.9715665
2.639137 1.2358687 0.97558784
2.6393425 1.2642697 0.97971994
2.5705101 1.3154211 0.96666926
2.6316009 1.3033299 0.98312581
2.5700099 1.3436998 0.97087014
2.5702157 1.372607 0.97545242
2.5499613 -1.4491527 1.0106921
2.5501709 -1.4198661 1.0058072
2.5891905 -1.4120251 1.0162796
2.6203227 -1.3993663 0.99446911
2.6204224 -1.3700573 1.0189604
2.6206305 -1.3410695 1.0144347
2.6208351 -1.3123349 1.0100253
2.6210368 -1.2838464 1.0057306
2.5514696 -1.2221777 1.0028504
2.5516651 -1.1949068 0.99877506
2.5518572 -1.167854 0.99480814
2.5885842 -1.1573483 1.0051351
2.6219161 -1.1448013 1.014145
2.6221092 -1.1176431 1.0103942
2.6223021 -1.0906836 1.0067487
2.6224933 -1.0639157 1.0032058
2.6226835 -1.0373337 0.99976426
2.6228724 -1.0109315 0.99642253
2.5533235 -0.94156772 1.0008194
2.5534883 -0.90787733 1.0147418
2.6116347 -0.90286297 1.0070095
2.6236823 -0.88137722 1.0086393
2.6238627 -0.85593599 1.0057878
2.6240425 -0.83063626 1.0030292
2.6243124 -0.79295796 0.99907506
2.6245811 -0.75553793 0.99530077
2.5548351 -0.71128792 1.0063536
2.5550449 -0.67930841 1.0076853
2.5892587 -0.64807498 0.99940854
2.6253412 -0.6327228 1.0111578
2.6255126 -0.60848182 1.0091323
2.6256871 -0.58433682 1.0071934
2.6258578 -0.56028181 1.0053377
2.6261148 -0.52437103 1.0027221
2.6263711 -0.48862121 1.0002719
2.5566266 -0.45251387 0.99832034
2.5567906 -0.42948127 0.99687719
2.5569551 -0.40651357 0.99551481
2.6246562 -0.39373836 0.99375236
2.6272116 -0.3706221 0.99345267
2.6273198 -0.34719476 1.0056552
2.6275704 -0.31216681 1.0041045
2.6277611 -0.2772238 1.0159999
2.6279273 -0.25398773 1.015165
2.6280937 -0.23078807 1.0144094
2.5582991 -0.20209457 1.012779
2.5585403 -0.16832408 1.0119215
2.6287539 -0.13828057 1.0121719
2.6290016 -0.10368001 1.0116651
2.6292472 -0.069105484 1.0113132
2.6294119 -0.04606732 1.0111825
2.6295774 -0.023033341 1.0111297
2.6298242 0.011518109 1.0112052
2.5600629 0.04485232 1.0104848
2.5603032 0.078517362 1.0109094
2.5605431 0.11221212 1.0114893
2.6307304 0.13838454 1.0129329
2.6308937 0.16151242 1.0135016
2.6311421 0.19626179 1.014513
2.6313913 0.23107767 1.0156822
2.6315567 0.2543385 1.016567
2.5832756 0.29543141 0.99976206
2.6317816 0.27764791 1.004223
2.5620527 0.31576252 1.0056729
2.5622177 0.33859164 1.0068631
2.5624371 0.36148435 0.99503076
2.6327605 0.40676016 0.99749577
2.6330142 0.44228509 0.99969739
2.6331835 0.46606418 1.0012733
2.6333542 0.48992038 1.0029315
2.6336112 0.52586865 1.0055845
2.5778925 0.55004746 1.0135304
2.564014 0.58242077 1.011006
2.5642672 0.61800361 1.0142093
2.6345646 0.65941483 1.0168959
2.6347985 0.68405211 1.0056369
2.6350331 0.70880604 0.99440247
2.6352093 0.73366481 0.99685597
2.6353889 0.75864917 0.99939936
2.628135 0.79407787 1.0005265
2.5658565 0.82461607 1.009145
2.5661249 0.86204195 1.0136061
2.6364801 0.91145223 1.0165895
2.636723 0.93747091 1.0058954
2.6370611 0.97682559 0.99686307
2.6373456 1.0165098 1.0019208
2.6375337 1.0432073 1.0054251
2.5677075 1.0679764 1.0134443
2.6106539 1.0591125 0.99867672
2.5678964 1.0945356 1.0172639
2.5682003 1.1213475 0.99336809
2.6386237 1.1797208 0.99600065
2.6388235 1.2076539 1.0000308
2.6390245 1.235816 1.0041707
2.6392264 1.264214 1.0084225
2.5703983 1.315364 0.99499005
2.6314859 1.303273 1.0119284
2.5698972 1.3436408 0.99931353
2.5701036 1.372547 1.0040303
2.5498512 -1.4490901 1.039633
2.5500581 -1.4198033 1.0346071
2.5502684 -1.3907988 1.0297102
2.6202133 -1.3993077 1.0236061
2.5573218 -1.365721 1.0276885
2.559875 -1.3384008 1.0382751
2.5808558 -1.3207154 1.0276896
2.5507638 -1.3053162 1.0442019
2.5923269 -1.2980599 1.0276903
2.5509655 -1.277349 1.0396643
2.6035986 -1.2753047 1.0276909
2.5511627 -1.2496204 1.0352439
2.5513587 -1.2221246 1.0309398
2.5515532 -1.1948545 1.02675
2.5590494 -1.1531183 1.0322169
2.5520165 -1.1142812 1.0426716
2.5835569 -1.1280526 1.0273427
2.5522051 -1.0878474 1.0388156
2.5981319 -1.0940022 1.0273435
2.5523906 -1.0616056 1.0350665
2.612309 -1.0597841 1.0273447
2.5525794 -1.0355525 1.031425
2.6214929 -1.0368627 1.0273453
2.5535722 -1.0099986 1.028212
2.6227574 -1.0108871 1.0243315
2.5593283 -0.9864397 1.0270112
2.5531139 -0.94996762 1.0382937
2.553376 -0.90783739 1.0419997
2.5535543 -0.88278413 1.038877
2.5961943 -0.88481516 1.027014
2.5537317 -0.85787868 1.0358523
2.6076226 -0.85063827 1.027015
2.5539103 -0.83311665 1.0329251
2.614975 -0.827766 1.0270157
2.5546541 -0.79639316 1.0289166
2.6232061 -0.79261887 1.0260806
2.5593939 -0.76111019 1.0266975
2.6244648 -0.75550443 1.0225908
2.5602283 -0.73701268 1.037885
2.5546665 -0.71124101 1.0465444
2.5549226 -0.67528534 1.0429358
2.5551775 -0.63954467 1.0395086
2.5891476 -0.64804715 1.0262557
2.5553458 -0.61585349 1.0373427
2.5985422 -0.61423528 1.0267017
2.5555155 -0.59225953 1.0352659
2.6064155 -0.58004797 1.0267028
2.5557661 -0.55705082 1.0323241
2.6113977 -0.5571965 1.0267034
2.5560155 -0.52201486 1.0295546
2.6184702 -0.52283454 1.0267043
2.5566044 -0.49884859 1.0279924
2.6251414 -0.48839244 1.0267054
2.5572233 -0.46419129 1.0257111
2.5566201 -0.42945266 1.0363462
2.5567832 -0.40648624 1.0349293
2.6245451 -0.39372173 1.0204482
2.5653117 -0.37335896 1.0362737
2.627095 -0.37060565 1.0201383
2.5677967 -0.33932889 1.0353653
2.5573769 -0.3151862 1.0432249
2.5812652 -0.31813034 1.026405
2.5575402 -0.29248825 1.0422065
2.5851998 -0.28418702 1.0264058
2.5577829 -0.25852439 1.0408416
2.5887377 -0.25020009 1.026407
2.5580239 -0.22463484 1.0396386
2.5908315 -0.22751588 1.0264076
2.5581837 -0.20208544 1.0389442
2.5584264 -0.16831657 1.0380652
2.5586681 -0.13459384 1.0373461
2.5972178 -0.13662167 1.0264102
2.5588257 -0.11213686 1.036972
2.5987663 -0.102486 1.0264112
2.5590668 -0.078478746 1.0365725
2.5999157 -0.068334557 1.0264121
2.5593083 -0.044839099 1.036332
2.6004167 -0.045559321 1.026413
2.5594671 -0.022419222 1.0362771
2.6007175 -0.022780547 1.0264136
2.5597072 0.011211012 1.0363545
2.60077 0.011390289 1.0264145
2.5599482 0.044850312 1.0365912
2.5601883 0.078513831 1.0370266
2.5604289 0.11220711 1.0376217
2.5605898 0.13469493 1.0381253
2.5972383 0.13662274 1.0264182
2.5608292 0.16847536 1.0390401
2.5959437 0.15936682 1.0264189
2.5610716 0.20231359 1.0401171
2.5936036 0.19345766 1.02642
2.5612323 0.22491659 1.0409427
2.5908654 0.22751884 1.026421
2.5613959 0.24755749 1.0418504
2.5887749 0.25020367 1.0264217
2.5616379 0.28160277 1.0433742
2.5848198 0.28414339 1.0262549
2.5618815 0.31574139 1.0450625
2.5620456 0.33856893 1.0462992
2.5647426 0.37329108 1.036075
2.5685904 0.4083634 1.0264262
2.6326442 0.40674219 1.0242903
2.5649168 0.4308463 1.0264269
2.6328983 0.4422656 1.0265511
2.5635056 0.46532685 1.0282305
2.6293905 0.46539283 1.0267335
2.5633137 0.50015777 1.0306902
2.6252148 0.48840609 1.0267341
2.5634794 0.52353925 1.0325611
2.6185489 0.52285028 1.0267351
2.563648 0.54700804 1.0345193
2.5639 0.58239484 1.0376303
2.5641544 0.61797643 1.0409186
2.5643251 0.64183426 1.0432301
2.5903666 0.64835227 1.0267389
2.5645812 0.67783892 1.0468786
2.58459 0.67101687 1.0267396
2.5755286 0.70490998 1.0267406
2.634917 0.70877486 1.0216681
2.5668292 0.73891288 1.0270444
2.6350937 0.73363262 1.024189
2.5653021 0.76286721 1.0290676
2.6352737 0.75861597 1.0268023
2.5654774 0.78744233 1.0318652
2.6248894 0.79311204 1.0267375
2.5657425 0.82457936 1.0362521
2.56601 0.86200327 1.0408326
2.566191 0.88715273 1.0440181
2.5924509 0.896231 1.0270662
2.566371 0.91245776 1.0473028
2.5845032 0.91890454 1.0270669
2.5763571 0.94150758 1.0270677
2.5678239 0.97683668 1.0287058
2.6369467 0.97678328 1.0247848
2.5672188 1.0153961 1.0337068
2.6306283 1.0139208 1.0274055
2.5674047 1.041567 1.0374155
2.6216483 1.0369244 1.0274062
2.5675924 1.0679284 1.0412313
2.6105375 1.0590655 1.026648
2.5677836 1.0944874 1.0451565
2.5680306 1.1212733 1.0351913
2.573745 1.1507137 1.0274097
2.5685151 1.1754774 1.0293926
2.6385107 1.1796702 1.0245212
2.5686688 1.2028695 1.0336373
2.6310606 1.2180655 1.0277641
2.5689664 1.2444503 1.0402615
2.6148582 1.2525414 1.0277653
2.5692668 1.286513 1.0471231
2.6037884 1.2753977 1.0277659
2.5702868 1.3153068 1.023481
2.592519 1.2981561 1.0277665
2.5697868 1.3435831 1.0279288
2.5699921 1.3724875 1.0327803
2.5497372 -1.4490254 1.0687513
2.5499492 -1.4197426 1.0635866
2.5501566 -1.3907378 1.0585514
2.5503602 -1.3620032 1.0536435
2.5504515 -1.3334739 1.0776204
2.5506525 -1.3052592 1.0728334
2.5508518 -1.277292 1.0681703
2.5510499 -1.2495651 1.0636292
2.5512474 -1.2220713 1.0592077
2.5514417 -1.1948023 1.0549028
2.5516236 -1.1587722 1.0681341
2.5519028 -1.1142315 1.0706791
2.5520906 -1.0877986 1.0667193
2.5522799 -1.0615596 1.062871
2.5524659 -1.0355064 1.0591305
2.5526493 -1.0096335 1.0554966
2.5527768 -0.98391461 1.0658202
2.5529923 -0.9456839 1.0744519
2.553262 -0.90779686 1.06944
2.5534415 -0.88274509 1.0662357
2.5536203 -0.85784125 1.0631319
2.553797 -0.83307964 1.0601268
2.554059 -0.79621005 1.0558138
2.5542631 -0.75958443 1.0652785
2.5543787 -0.73532879 1.0761752
2.5545506 -0.71120876 1.0735818
2.5548077 -0.67525494 1.0698805
2.5550621 -0.63951582 1.0663644
2.5552323 -0.61582613 1.0641433
2.5553997 -0.59223264 1.0620118
2.5556514 -0.55702579 1.0589945
2.5559003 -0.52199137 1.0561534
2.5560687 -0.49874407 1.0543773
2.5562582 -0.4640125 1.0652235
2.5564466 -0.42942351 1.0761821
2.5566118 -0.40645897 1.0747116
2.5568547 -0.37213165 1.0726765
2.5571001 -0.33791539 1.0708135
2.5572615 -0.31517199 1.069684
2.5574241 -0.29247496 1.0686394
2.557667 -0.25851268 1.06724
2.5579078 -0.22462465 1.0660064
2.5580711 -0.20207655 1.0652959
2.55831 -0.16830893 1.064393
2.5585513 -0.13458769 1.0636555
2.5587113 -0.11213183 1.0632728
2.5589521 -0.078475222 1.0628629
2.5591912 -0.04483705 1.0626156
2.5593522 -0.022418216 1.0625602
2.5595922 0.011210508 1.0626395
2.5598335 0.044848304 1.0628823
2.5600722 0.078510284 1.0633283
2.560312 0.11220199 1.063938
2.560473 0.13468878 1.0644543
2.5607147 0.16846782 1.0653934
2.560957 0.20230453 1.0664978
2.561116 0.22490638 1.0673435
2.5612795 0.24754624 1.0682743
2.5615222 0.28159004 1.0698369
2.5617659 0.31572714 1.0715683
2.5619297 0.33855361 1.072836
2.5621738 0.37290651 1.074908
2.5624781 0.40739167 1.0638314
2.5626426 0.43046427 1.0654242
2.5629485 0.46522769 1.0546135
2.5631986 0.50013524 1.0573183
2.563365 0.52351588 1.059238
2.5635321 0.54698336 1.0612462
2.5637844 0.58236861 1.0644376
2.564038 0.61794841 1.0678105
2.564208 0.64180499 1.0701815
2.5644674 0.67780888 1.0739257
2.5647829 0.71405751 1.064285
2.5650134 0.73839015 1.0533923
2.5651896 0.76283377 1.0561683
