# .PCD v0.7 - Point Cloud Data file format
VERSION 0.7
FIELDS x y z
SIZE 4 4 4
TYPE F F F
COUNT 1 1 1
WIDTH 1475
HEIGHT 1
VIEWPOINT 0 0 0 1 0 0 0
POINTS 1475
DATA ascii
3.1320827 -0.68265784 -0.4063755
3.1026771 -0.61485976 -0.38212362
3.1340964 -0.64007628 -0.40550649
3.2485669 -0.60437715 -0.4041155
3.6435299 0.71093118 -0.4043012
3.2679405 0.75736916 -0.38030753
3.343365 0.7440533 -0.38831127
3.4381495 0.73360121 -0.39855829
3.5379374 0.72255278 -0.37719777
3.2391751 0.78066039 -0.36288023
3.2843888 0.81189948 -0.38861224
3.2879584 0.86388636 -0.38038471
3.3038213 0.88870555 -0.40312806
3.1048453 -0.93814969 -0.32437557
3.1697028 -0.912462 -0.35923228
3.1118276 -0.88106465 -0.3234424
3.1711216 -0.8828674 -0.35850289
3.2016637 -0.8612259 -0.33157188
3.2017164 -0.8312366 -0.30141303
3.0055647 -0.68271273 -0.30823866
3.0986004 -0.689601 -0.3457346
2.9730747 -0.63436782 -0.30402246
3.0885794 -0.62144202 -0.33376622
3.2483368 -0.60433435 -0.3451401
3.0656397 -0.59817243 -0.31236845
3.6431644 0.71085989 -0.32175905
3.2184072 0.77565521 -0.31639373
3.2530646 0.75392163 -0.31911516
3.3430967 0.74399364 -0.32729518
3.4378734 0.73354244 -0.33593208
3.5377245 0.72250926 -0.32901236
3.2540524 0.81446862 -0.32059038
3.176492 0.88436252 -0.30045089
3.2667799 0.86344457 -0.33792454
3.407124 1.0132074 -0.33968452
3.3222599 1.0356618 -0.31709626
3.3756056 1.0523401 -0.35361314
3.3255246 1.1010063 -0.31920135
3.3882267 1.1052808 -0.35642123
3.118619 -0.98719364 -0.24005955
3.1282263 -0.99023485 -0.26987097
3.0910614 -0.9340055 -0.27984279
3.3576686 -0.90319014 -0.255169
3.0976491 -0.87703353 -0.27902853
3.1415148 -0.84504622 -0.26756573
3.296092 -0.85573858 -0.28008205
3.3627238 -0.85734522 -0.25467771
3.1192846 -0.83906645 -0.29433343
2.9171681 -0.70305479 -0.26016825
2.9954112 -0.68501043 -0.26182768
3.0005934 -0.66777074 -0.28010362
2.9729123 -0.63433313 -0.26350442
3.0757387 -0.62815791 -0.27213711
3.0544543 -0.59598982 -0.26977873
3.5909476 0.70067126 -0.26849934
3.601007 0.66994661 -0.2688024
3.20279 0.77189136 -0.25638056
3.2528048 0.75386143 -0.25983354
3.3428295 0.74393415 -0.26649392
3.4375985 0.73348367 -0.27352631
3.5375123 0.72246593 -0.28096205
3.0938854 0.83223426 -0.26350909
3.1713781 0.82336015 -0.26949665
3.2348914 0.80967283 -0.25951189
3.1577377 0.87905961 -0.26960772
3.1285837 0.90062505 -0.29665422
3.3263373 1.0050272 -0.27036285
3.2965207 1.059432 -0.28479034
3.3107975 1.0640239 -0.25521192
3.3160276 1.1139579 -0.27216434
3.1158662 -0.98632228 -0.21092808
3.0958264 -0.93839186 -0.21451721
3.1051126 -0.87914169 -0.20827875
3.1394675 -0.84449553 -0.19546497
3.3609114 -0.87256712 -0.22409937
2.8681631 -0.70012039 -0.19927903
2.8816934 -0.66785365 -0.19090964
2.9909065 -0.67938304 -0.22508779
2.8694472 -0.62539524 -0.18953921
2.9727495 -0.63429844 -0.22307263
3.066462 -0.62626338 -0.22968429
2.8907061 -0.57719541 -0.19024649
3.0466919 -0.59447521 -0.22780469
2.8980324 -0.51295209 -0.18994689
2.9049139 -0.4488011 -0.18970507
2.9104609 -0.39758956 -0.1895833
2.9174547 -0.33364984 -0.18952046
2.9245143 -0.26972932 -0.18954681
2.9316552 -0.20576008 -0.18967508
2.9374237 -0.15451755 -0.18983917
2.9403315 -0.12885579 -0.18994687
2.9447241 -0.090299636 -0.1901394
2.950635 -0.038763858 -0.19044797
2.9582398 0.025931502 -0.19093275
2.966002 0.090965465 -0.1915133
2.972322 0.14331251 -0.19205406
2.9804661 0.2092226 -0.19283324
2.9888964 0.27568126 -0.19371969
2.9960251 0.32936299 -0.19452588
3.0034397 0.38353831 -0.19541362
3.0135067 0.45212188 -0.1966691
3.0265188 0.52205044 -0.19821359
3.5644999 0.67931974 -0.23419036
3.1966939 0.77042222 -0.21221708
3.2526104 0.75381637 -0.21548255
3.3426297 0.74388963 -0.2210061
3.4373927 0.7334398 -0.22683811
3.5373003 0.72242266 -0.23300463
3.046901 0.81959569 -0.20363261
3.0926013 0.83188879 -0.23502497
3.1708243 0.82321632 -0.21142472
3.2261357 0.80748123 -0.21463291
3.0369525 0.84551358 -0.2034549
3.0862463 0.88843739 -0.20727064
3.1229162 0.89899361 -0.23848915
3.0450809 0.90554339 -0.20503083
3.317981 1.0503014 -0.22461022
3.3250051 1.1008589 -0.22604883
3.119004 -0.98731554 -0.12447359
3.1419947 -0.99459326 -0.15446749
3.0972314 -0.92845839 -0.14438489
3.1048648 -0.87907636 -0.16548277
3.1404493 -0.84475964 -0.15242521
3.2276299 -0.86821061 -0.12716816
3.3640141 -0.84199136 -0.16253525
3.1633594 -0.82127827 -0.12434772
3.2024796 -0.83143473 -0.1550765
2.8766825 -0.74685055 -0.16554312
2.8678467 -0.69116426 -0.15779246
2.987828 -0.69245106 -0.14375128
2.87164 -0.63028491 -0.1550786
2.9236221 -0.62381613 -0.14011486
3.0609665 -0.62514096 -0.14642903
3.3954763 -0.60098732 -0.14640218
2.8875737 -0.57657027 -0.16401422
3.0423372 -0.59362555 -0.14528355
3.4055772 -0.57205766 -0.14661548
3.4580278 -0.54976928 -0.14865822
2.8950999 -0.51243222 -0.16376765
3.4640477 -0.50415993 -0.14862074
2.9022365 -0.44838727 -0.16357395
3.4707818 -0.44320059 -0.14855364
2.907913 -0.39724135 -0.16347653
3.4762418 -0.38727903 -0.15364614
3.4812853 -0.36726895 -0.13318889
2.9149749 -0.33336616 -0.16342647
3.4842174 -0.32135105 -0.14855537
2.9220121 -0.26949859 -0.1634483
3.4888401 -0.2602312 -0.16397788
2.9276168 -0.21836984 -0.16352269
3.4938877 -0.21449223 -0.16406693
2.9345989 -0.15436053 -0.16368718
2.6045136 -0.079880081 -0.12213221
2.941561 -0.090202972 -0.16392341
2.6032786 -0.034205571 -0.12202746
2.9471202 -0.038718101 -0.16417021
2.6094582 0 -0.12230539
2.9173269 0.038353737 -0.13674834
2.9540653 0.025893198 -0.16455185
2.9305313 0.089878783 -0.13742
2.9610217 0.090811975 -0.16500792
2.9303372 0.15413409 -0.13753839
2.9665933 0.14303544 -0.16543266
2.9311061 0.21864265 -0.13776404
2.9735718 0.20873554 -0.16603966
2.9805698 0.27491194 -0.16672391
2.9862256 0.32828397 -0.16733631
2.9920175 0.38207781 -0.16801021
3.5626814 0.40743932 -0.16807143
2.997849 0.43632206 -0.16874102
3.0022476 0.47730771 -0.16932525
3.5681 0.45564336 -0.16859664
3.0066743 0.51861775 -0.16994636
3.5767195 0.52590758 -0.15880056
3.0126181 0.57416022 -0.17082468
3.5818996 0.56946284 -0.15398839
3.0186305 0.63029838 -0.17176543
3.587064 0.61872739 -0.15454879
3.0248618 0.68711007 -0.17277849
3.5471721 0.67600083 -0.15331927
3.0312595 0.74463582 -0.17386246
3.1946838 0.76993775 -0.13952383
3.2522869 0.75374144 -0.14174816
3.3422971 0.74381566 -0.14538163
3.4370506 0.73336685 -0.14921804
3.5321918 0.72137934 -0.15306577
3.0360143 0.80718344 -0.16571227
3.0899777 0.83118308 -0.12174469
3.1705108 0.8231349 -0.13907892
3.2228317 0.80665433 -0.14105572
3.040617 0.85373861 -0.15495251
3.0739648 0.88490194 -0.13576844
3.0351584 0.90259266 -0.16237599
3.0624752 0.9253453 -0.14998339
3.3210354 1.0193517 -0.14750537
3.3110626 1.0587745 -0.14248283
3.3290679 1.1075952 -0.15411888
3.1012273 -0.98168838 -0.080815583
3.0826979 -0.93146902 -0.079984948
3.0952311 -0.87634629 -0.079900421
3.1178131 -0.83867061 -0.080156796
3.1591659 -0.82018948 -0.081024744
2.9202199 -0.68753314 -0.092917182
2.9409363 -0.70878309 -0.06176877
2.9174862 -0.64032054 -0.10484329
2.9658539 -0.64185947 -0.070887744
3.0665939 -0.62629026 -0.091468036
3.4064806 -0.60293502 -0.10112137
3.4249535 -0.60620469 -0.071019292
3.0472262 -0.59457952 -0.090734757
3.4174407 -0.57405043 -0.10129357
3.457952 -0.56521535 -0.087061457
3.4849262 -0.50719851 -0.10294092
3.4917388 -0.44587666 -0.10289561
2.943377 -0.37585405 -0.060587861
2.8705273 -0.32828242 -0.084454343
2.9255579 -0.30864078 -0.08599057
2.9488461 -0.32416236 -0.060574234
2.9546189 -0.27250615 -0.073660403
2.903908 -0.20367487 -0.1107604
2.9615295 -0.20785759 -0.073702686
2.565057 -0.13492993 -0.086413071
2.5514748 -0.089481495 -0.085898578
2.5133183 -0.044033356 -0.073477238
2.5460875 -0.029751703 -0.089426517
2.5581341 0.011210293 -0.086060092
2.9900534 0.052385759 -0.087422609
2.9943953 0.091835707 -0.08757814
2.9987669 0.13141663 -0.08774808
3.0016997 0.15789868 -0.087871008
3.0076215 0.2111266 -0.088141412
3.0151083 0.27809802 -0.088516653
3.0206516 0.33206648 -0.088831834
2.9738722 0.39288092 -0.11413413
3.0270381 0.38655028 -0.075757176
3.0332744 0.44147849 -0.076095149
2.976747 0.52687371 -0.088364735
3.0343013 0.50425476 -0.073609091
2.9676936 0.55212229 -0.088236161
3.0468564 0.58067656 -0.063332513
2.9766879 0.63513881 -0.062147584
3.0070467 0.61412895 -0.062666707
3.5500019 0.69268185 -0.10572583
3.199306 0.7710517 -0.081686839
3.2520289 0.7536816 -0.08287023
3.342098 0.74377137 -0.1000817
3.5367372 0.72230762 -0.10551517
3.098948 0.83359599 -0.079632923
3.1713293 0.82334745 -0.081342012
3.2294641 0.80831432 -0.082630873
3.0980003 0.87224942 -0.08460626
3.121032 0.89845115 -0.066314653
3.3206818 1.0033356 -0.08614403
3.2960114 1.043347 -0.070590846
3.3067179 1.0680287 -0.091378063
3.3150721 1.1136367 -0.086864561
3.3514638 1.1586277 -0.088050067
3.1400795 -0.96380949 -0.023667881
3.0935013 -0.91994262 -0.023197094
3.1433043 -0.90486276 -0.023569193
3.1493802 -0.87681437 -0.0235564
3.1815648 -0.8558194 -0.023739643
3.1978354 -0.83022898 -0.038355902
2.9425304 -0.68195307 -0.021756805
2.9659023 -0.65090108 -0.026370799
3.0781512 -0.62865061 -0.036473304
2.8596423 -0.57092285 -0.0081716031
2.9246464 -0.54411364 -0.008336165
3.0572004 -0.59652567 -0.036161754
2.8509119 -0.50460136 -0.033611964
2.9192665 -0.49917015 -0.016933344
2.8593638 -0.4289481 -0.059037145
2.9343929 -0.4533557 -0.021397065
2.9260113 -0.41277397 -0.03419755
2.9425483 -0.37574822 -0.021377146
2.9480095 -0.32407042 -0.0213723
2.9534943 -0.27240241 -0.021374188
2.9603951 -0.20777798 -0.021386417
2.5716069 -0.13527445 -0.052580886
2.8876901 -0.15190141 -0.0081031658
2.966234 -0.15603307 -0.034483965
2.3616056 -0.072422959 -0.0066209421
2.4329829 -0.063947 -0.028255355
2.4660943 -0.06481728 -0.050371274
2.5671582 -0.10347573 -0.034349963
2.3621407 -0.031037159 -0.0066199014
2.4378679 -0.035584074 -0.035509229
2.4704859 -0.021639805 -0.05044549
2.3641663 0 -0.0066249426
2.5687346 0.01348337 -0.034343887
2.9888854 0.052365299 -0.034704652
2.9932249 0.091799811 -0.034766376
2.997592 0.13136515 -0.034833804
3.0005238 0.15783681 -0.034882601
3.0064418 0.21104378 -0.034989927
3.0139256 0.27798888 -0.035138883
3.091857 0.27154484 -0.0086976737
2.9486744 0.3372196 -0.0083167292
3.0173934 0.32725787 -0.026343951
2.9444366 0.36288974 -0.008313423
3.0264664 0.39096618 -0.026463836
3.0320845 0.44130531 -0.022080462
3.0400078 0.51069659 -0.022214668
3.0480697 0.58091736 -0.022360798
3.0546374 0.63781726 -0.022487501
2.9859183 0.71962404 -0.035657402
3.0432959 0.68652672 -0.027018003
3.0626998 0.70980316 -0.0088098673
3.0480657 0.7629115 -0.0088048689
3.0660946 0.73894703 -0.0088379132
3.0048864 0.78013515 -0.0086995447
3.1703699 0.8230983 -0.038026471
3.2394447 0.81081247 -0.038768306
3.1129289 0.86666608 -0.023274541
3.1748002 0.85399973 -0.038167868
3.1403966 0.90402567 -0.037938856
3.3736639 1.0032572 -0.025356289
3.2966034 1.0753921 -0.040256623
3.3519266 1.0449114 -0.025292577
3.366004 1.0980315 -0.009921507
2.9762712 -0.92777425 0.032485534
3.002948 -0.95057821 0.046655823
2.889262 -0.87305492 0.018123643
2.9667654 -0.868182 0.045787938
2.8597012 -0.8097254 0.017846476
2.9318409 -0.78864539 0.044970926
2.9456494 -0.82009393 0.045291178
2.840405 -0.75075501 0.01764123
2.9163952 -0.7435742 0.044580843
2.8518991 -0.70052588 0.017633596
2.9037724 -0.68194038 0.035466794
2.9141834 -0.63516498 0.031043166
2.9210994 -0.56998307 0.030976966
2.9278946 -0.50501651 0.030923827
2.9333029 -0.45318729 0.030892346
2.8741257 -0.37980965 0.042942442
2.9373679 -0.41437599 0.030874841
2.9417191 -0.37564236 0.01780731
4.2748337 -0.3753978 0.02576725
2.9471745 -0.3239786 0.017803242
4.2810173 -0.3193194 0.025777254
2.8736889 -0.27774045 0.017335624
4.2872057 -0.26319456 0.02579122
2.3190308 -0.12198818 0.034351155
2.3118207 -0.081033856 0.034246612
2.3124609 -0.030384397 0.03424257
2.31581 0.020309469 0.034274247
4.3584356 0.38273937 0.026271176
2.9965689 0.47640488 0.018219033
4.3648815 0.44118452 0.026342958
2.9591126 0.49706203 0.018017082
3.0423181 0.53847957 0.0185517
4.3735294 0.51960468 0.026446037
2.9900517 0.58342355 0.045124684
3.0471802 0.58074784 0.01862647
4.3800592 0.57881558 0.026528949
3.0534532 0.63757002 0.032466006
4.3866358 0.63845348 0.026617568
3.0584471 0.68064594 0.032611027
3.0618129 0.70959759 0.032711938
3.0669029 0.75339192 0.032869592
3.0736928 0.81240863 0.033089798
3.0758016 0.870866 0.033294406
3.0336025 0.93114668 0.019054687
3.0984626 0.93626261 0.047945239
3.0493052 0.99472052 0.019259302
3.1309476 0.99109632 0.048644513
3.0923944 1.0540257 0.019617602
3.1601708 1.0308862 0.04923695
3.1901121 1.0716588 0.049847789
2.9881258 -0.91716921 0.087610804
3.0027709 -0.95052218 0.088280916
2.9665926 -0.86813146 0.086638793
2.9316692 -0.78859913 0.085092828
2.9454775 -0.82004613 0.085698828
2.9162111 -0.74352729 0.084354326
2.9093006 -0.68770552 0.083792597
2.8343141 -0.63076597 0.11978931
2.9130652 -0.63492113 0.08356712
2.9195051 -0.57498026 0.080783412
4.2539048 -0.56214452 0.10136057
2.8694799 -0.53385025 0.094671428
2.9270842 -0.50487667 0.070166111
4.2581067 -0.52479422 0.082447991
4.2622261 -0.48744142 0.082441919
2.8540702 -0.45374995 0.068266392
4.2663445 -0.45009124 0.082442164
4.2097387 -0.36968145 0.099826351
4.2718654 -0.40028635 0.076152891
4.2138004 -0.332872 0.099849693
4.2808509 -0.31930697 0.063585877
4.2178612 -0.29604229 0.099880643
4.2870398 -0.26318437 0.063620344
2.334331 -0.12279302 0.075820975
2.322669 -0.081408806 0.075386204
2.3503881 -0.10300238 0.10745455
2.3239145 -0.03053489 0.075385652
2.3278422 0.020426735 0.075510651
2.3519847 0.020601815 0.10742857
4.3539076 0.34393984 0.083930537
4.3581829 0.38271725 0.084074363
4.3646278 0.44115895 0.084304079
4.3732758 0.51957446 0.084633939
4.3798041 0.57878184 0.084899269
4.3863792 0.63841605 0.08518286
3.001399 0.66795009 0.072634421
3.0609281 0.70939261 0.074222557
4.3542347 0.69225127 0.10414876
4.3930812 0.6984272 0.06588874
2.9879022 0.74785292 0.099905118
3.0660014 0.75317049 0.074579947
3.2757113 0.75917017 0.10906699
3.3411701 0.74356484 0.11102537
3.4358909 0.73311937 0.11395513
3.0724568 0.81208193 0.089075059
3.3083532 0.7973327 0.11038213
3.0797343 0.87200403 0.089715563
3.098268 0.93620366 0.090720348
3.1307683 0.99103951 0.092044026
3.1599855 1.0308259 0.093164884
3.1899276 1.0715969 0.094320782
2.9637697 -0.93817633 0.12824903
2.9226291 -0.8831085 0.1259574
2.9107153 -0.81044275 0.12465163
2.9021437 -0.73992729 0.12355833
2.8692777 -0.66497618 0.12150852
2.8880382 -0.69603431 0.13563639
2.9731853 -0.67535913 0.15269105
2.9679413 -0.63327253 0.1386036
3.1635821 -0.63171017 0.14729384
3.1946807 -0.65244943 0.1632915
3.2464018 -0.60397434 0.1507979
0.10713021 -0.13973428 0.17206545
0.1476061 -0.13398051 0.17237821
0.20742096 -0.1339834 0.17259195
0.26755491 -0.13412595 0.17282042
0.32582641 -0.13400169 0.17305352
0.15815459 -0.094418287 0.17223473
0.20728423 -0.088872604 0.17250045
0.26761436 -0.089337744 0.17274657
0.32486999 -0.089579374 0.17298745
2.3645778 -0.10362422 0.14991713
0.17254992 -0.033493578 0.17211293
0.2069369 -0.030259557 0.17242795
0.26728562 -0.030207692 0.17268895
0.32522234 -0.030714005 0.17294192
2.5338302 -0.022194659 0.12689862
0.17257485 0.032941476 0.17211145
0.20692782 0.029323094 0.17242768
0.26730967 0.028983042 0.17268863
0.32501268 0.029480889 0.1729406
2.3661814 0.020726169 0.14988068
2.5472817 0 0.15024228
0.15815453 0.094418317 0.17223455
0.2072842 0.088872559 0.17250015
0.26761431 0.089337736 0.17274646
0.32447973 0.08950223 0.17298573
0.10671283 0.14032614 0.17207293
0.14767873 0.13458091 0.17238063
0.20752561 0.13486096 0.17259453
0.26764798 0.1352163 0.17282294
0.3253563 0.1353749 0.17305401
4.3175087 0.60907322 0.1414292
4.3218384 0.64834154 0.14175163
4.3261886 0.68779248 0.14208646
3.2930543 0.76318955 0.13945466
3.3393757 0.75336242 0.16137092
3.4356861 0.73307574 0.16042987
3.0161371 0.8397184 0.12916216
3.0909514 0.83144498 0.14617261
3.1530039 0.81858975 0.13438852
3.3369651 0.81973612 0.14175972
3.3666546 0.81138372 0.17342885
3.0217535 0.86976898 0.14365318
3.1212521 0.89851451 0.14832723
3.37291 0.85995984 0.1743201
3.0268052 0.92900705 0.13997833
3.0375865 0.99089766 0.13181379
2.5946374 -1.4595823 0.22806256
2.5950589 -1.4005492 0.22590809
2.5954728 -1.3426034 0.22386201
2.5958781 -1.2856801 0.22192004
2.5962782 -1.2297194 0.22007859
2.5966716 -1.1746633 0.2183339
1.9771509 -1.100824 0.2336331
2.5971529 -1.1070714 0.21628852
1.9775085 -1.0561438 0.22149408
2.5975626 -1.0449998 0.22277653
1.9781481 -0.99601138 0.22372095
1.991899 -0.98651963 0.20972416
2.5681283 -0.98988599 0.23525082
2.5980012 -0.98832023 0.21294308
1.9783946 -0.92650956 0.22554959
2.5771298 -0.94178998 0.23452027
2.5940092 -0.93085641 0.21923743
1.9788405 -0.86406827 0.22293413
2.5978897 -0.87275273 0.22209655
1.9792738 -0.79897308 0.22796962
2.5992196 -0.81028849 0.22064015
1.9795569 -0.7563625 0.23136632
1.9899324 -0.73708797 0.22855189
2.5998189 -0.74844843 0.21925031
3.2198377 -0.74622101 0.19471706
3.2642899 -0.74148268 0.22680768
2.605077 -0.68853456 0.21834333
3.2242854 -0.70275396 0.19441283
3.2694559 -0.6826601 0.22630093
2.6125226 -0.62964988 0.21773116
3.2149808 -0.63711083 0.20278287
3.2618384 -0.60684627 0.21019953
2.61238 -0.57342046 0.22062568
2.6427958 -0.55180591 0.20682597
2.6013286 -0.5076012 0.22654016
2.6520751 -0.50543004 0.2068274
2.6017485 -0.44876635 0.22566277
2.6624858 -0.44723555 0.20682913
2.602165 -0.39038375 0.22490716
2.6717062 -0.38884014 0.20683095
2.6025796 -0.33234099 0.22425637
2.6795595 -0.33024466 0.20683269
2.6029913 -0.27462384 0.22372358
2.6862144 -0.27150053 0.2068345
2.6034834 -0.20567358 0.22322412
2.6038928 -0.14841345 0.22292347
2.3825297 -0.10441092 0.20388867
2.5371773 -0.081517331 0.20946477
2.5196722 -0.044144675 0.21539463
2.5316296 -0.033241104 0.20520565
2.3841419 0.020883491 0.20383883
2.538702 0 0.20572969
2.605279 0.045644507 0.22271276
2.6056049 0.091334097 0.22284891
2.6060133 0.14853501 0.223105
2.6064224 0.20590766 0.22347613
2.6897786 0.23620498 0.20685013
2.6069157 0.27503982 0.22406089
2.6864314 0.27152252 0.20685121
2.6073296 0.33294827 0.22466564
2.6798236 0.33027732 0.20685309
2.6077449 0.39122286 0.22538947
2.6720152 0.38888514 0.20685486
2.6081629 0.44987351 0.22621915
2.6628406 0.44729528 0.20685671
2.6085858 0.50901937 0.22717218
2.6524737 0.5055061 0.20685852
2.6179373 0.57463294 0.22111046
2.64323 0.55189663 0.20685995
5.1929097 0.59387732 0.21562828
1.9895636 0.6490199 0.23470505
2.6172512 0.63079071 0.21814467
1.9898809 0.687958 0.2267565
2.6108704 0.69006908 0.21884754
1.990304 0.74720949 0.22896373
2.6103685 0.75148934 0.22014077
3.3752718 0.75115407 0.21906582
3.4404345 0.73408884 0.22282299
1.9907746 0.80768377 0.22181034
2.6108148 0.81390405 0.22162445
3.4030318 0.80442965 0.20600906
1.9912149 0.86947364 0.22432828
2.6054115 0.87016404 0.22503331
3.4108486 0.85371375 0.20714103
1.9916677 0.93272763 0.2270629
2.6065459 0.93194449 0.22186053
1.997012 0.97819501 0.21969621
2.6120977 0.99368358 0.22648542
2.6125276 1.0465953 0.21560362
2.6129107 1.1002505 0.21719275
2.6133976 1.1685153 0.2193128
2.613894 1.2380642 0.22157186
2.6142993 1.2948048 0.22349492
2.6147115 1.3525566 0.22552142
2.5944815 -1.4594947 0.26765132
2.594955 -1.4004931 0.25203884
2.5953686 -1.3425496 0.24975607
2.5957742 -1.2856286 0.24758953
2.5961235 -1.2296462 0.25828156
2.5965168 -1.1745931 0.25623399
1.9769955 -1.1007375 0.2739861
2.5969985 -1.1070056 0.25383362
1.9773146 -1.0560403 0.27143556
1.977783 -0.99040061 0.26783368
1.9782397 -0.92643708 0.26450646
1.9786841 -0.86193907 0.26519087
2.3201864 -0.84789222 0.25503647
2.4343748 -0.87768459 0.25554055
2.4932237 -0.8618986 0.26450929
2.5548806 -0.87068605 0.25466904
1.9790443 -0.80494404 0.27398261
2.3038619 -0.81912416 0.28505781
2.4132245 -0.83427101 0.28636384
2.4717762 -0.8303473 0.29243755
2.5620174 -0.82583076 0.27306563
2.5991056 -0.79776412 0.26860565
1.9793992 -0.75299424 0.27537921
1.9822712 -0.72440404 0.27442625
2.5994565 -0.74834567 0.26725391
2.599894 -0.6871717 0.26568297
2.6003084 -0.62370819 0.27311495
4.1402669 -0.63966799 0.26533207
2.6007018 -0.566845 0.27482376
4.1407948 -0.56567013 0.26469016
2.6011248 -0.50756145 0.27363285
4.1411886 -0.51038456 0.26426122
2.6015451 -0.44873127 0.27257314
4.1415834 -0.45528615 0.26388443
2.6019616 -0.39035332 0.27166042
4.1421056 -0.3820366 0.2634508
2.6023767 -0.33231506 0.27087438
4.1424971 -0.32723939 0.26317698
2.602788 -0.27460241 0.27023086
4.1428876 -0.27255684 0.26295409
2.6032801 -0.20565751 0.26962754
4.1432781 -0.21794921 0.2627719
2.6036892 -0.14840184 0.26926437
4.1437969 -0.1452433 0.26260313
2.3035228 -0.060544342 0.27892035
2.3971107 -0.10504992 0.24772182
2.4082248 -0.10553699 0.28112113
2.5585802 -0.078466229 0.24151792
2.6041172 -0.08366546 0.27673489
4.1441851 -0.09076409 0.262532
2.2731972 -0.03982643 0.29561499
2.3099189 -0.030324675 0.26931539
2.5578983 -0.033609368 0.2413609
2.6045854 -0.022814428 0.26891488
4.1445742 -0.036303699 0.26250124
2.3987296 0.021011269 0.24766093
2.4098458 0.021108638 0.2810514
2.5588894 0 0.24143128
2.6049237 0.027384549 0.27361321
4.1449146 0 0.24418826
2.6054008 0.09132693 0.26917422
4.1454821 0.090793625 0.26261413
2.6058085 0.14852335 0.26948354
4.1458702 0.14531596 0.2627345
2.6062181 0.20589155 0.26993188
4.1462603 0.19990557 0.26290554
2.6067109 0.27501824 0.27063814
4.14678 0.2728141 0.26320118
2.607125 0.33292213 0.27136865
4.147172 0.3276087 0.26347399
2.6075411 0.39119229 0.27224293
4.1475635 0.38254118 0.26379797
2.6079597 0.44983843 0.27324522
4.1480885 0.45600241 0.26429892
2.6083822 0.50897956 0.27439633
4.1484838 0.51128364 0.26472673
2.6088076 0.56861246 0.2756803
4.1488791 0.56677568 0.26520693
1.9974216 0.64189315 0.27280894
2.6092882 0.62888908 0.26517662
4.1494102 0.64108169 0.26591802
1.9896853 0.68789041 0.2737523
2.3376989 0.71752852 0.29607722
2.5799398 0.71827734 0.26458254
2.6097231 0.68977028 0.26668739
1.9901085 0.74713606 0.27641699
2.3205643 0.74579191 0.26248708
2.4163666 0.75329441 0.27256715
2.472744 0.74715137 0.27819517
2.5333915 0.74130428 0.28429496
2.580188 0.75093752 0.26150218
1.9905792 0.80760449 0.26973194
2.4930167 0.80111808 0.24706477
2.5554352 0.78435999 0.25220716
3.457684 0.81734526 0.2407335
1.9910594 0.86940569 0.26307428
1.9915104 0.93265396 0.26628101
1.9919734 0.997509 0.26975548
2.6119432 0.99362487 0.26366889
2.6123724 1.0465332 0.25302988
2.6127546 1.1001847 0.25489473
2.6132424 1.1684459 0.25738293
2.6137221 1.2333113 0.25556427
2.6141942 1.2995051 0.25817868
2.6145568 1.3524766 0.2646693
2.5941725 -1.4742782 0.32134962
1.9767613 -1.1006073 0.33481774
1.9770808 -1.0559155 0.33170095
1.9775484 -0.99028325 0.3272993
1.9780051 -0.92632705 0.32323334
1.9783877 -0.86574405 0.33196566
1.9788083 -0.80282694 0.33527142
2.2489545 -0.79960227 0.33169785
2.3139598 -0.79995441 0.32928681
2.3780601 -0.82211435 0.30465162
2.4230521 -0.81397933 0.33228472
2.4963064 -0.81432557 0.32962888
2.5667727 -0.81250763 0.32597694
2.5988493 -0.79768544 0.32916942
1.9791646 -0.75290507 0.33245111
1.9819036 -0.72426963 0.33127999
2.5992022 -0.74827248 0.32751319
2.5996387 -0.68710405 0.32558784
2.6000159 -0.63009709 0.33076191
2.6004467 -0.56678933 0.33415669
2.6008692 -0.50751156 0.3327086
2.6012897 -0.4486872 0.33142009
2.6017058 -0.39031485 0.33031031
4.141993 -0.36373234 0.31852874
2.6021206 -0.33228236 0.32935458
4.1422553 -0.32722026 0.31831625
2.6025321 -0.27457541 0.32857209
4.1426449 -0.27254087 0.31804663
2.6030238 -0.20563726 0.32783857
4.1430359 -0.21793646 0.3178263
2.4306798 -0.12786126 0.34921932
2.6034334 -0.14838725 0.32739699
2.4206612 -0.106082 0.33678257
2.6038408 -0.091266647 0.3271153
4.1438146 -0.10891342 0.31755677
2.2690115 -0.044744845 0.33584332
2.2857966 -0.036010005 0.33831742
4.1443319 -0.036301579 0.31749898
2.426477 0.029779226 0.34165537
2.604655 0.022818215 0.32704183
2.6051443 0.091317952 0.32728741
4.1452398 0.090788327 0.31763554
2.605552 0.14850873 0.32766342
4.145628 0.14530747 0.31778109
2.6059618 0.20587128 0.3282086
4.146019 0.19989392 0.31798801
2.6064556 0.27499127 0.32906747
4.1465387 0.27279818 0.31834558
2.6068687 0.33288944 0.32995561
4.1469288 0.32758945 0.31867543
2.6072845 0.39115384 0.33101866
2.6077032 0.44979423 0.3322373
2.608125 0.50892943 0.33363685
2.608551 0.56855655 0.3351981
1.997077 0.64178294 0.32933149
2.6090324 0.62882739 0.32496738
1.9894491 0.68780875 0.33048692
2.2987916 0.70558625 0.33416796
2.4087262 0.71630478 0.33798605
2.4828055 0.71472496 0.34750184
2.5741127 0.71665496 0.3234894
2.6094675 0.68970281 0.32681885
1.9898715 0.74704713 0.33370376
2.4380124 0.72501391 0.30796611
2.5057693 0.72133553 0.31571481
1.9903035 0.80749255 0.33721915
1.9907923 0.86721551 0.32525936
1.9912753 0.93254387 0.32540199
1.9917382 0.99739116 0.3296479
2.6143777 1.3596404 0.32396188
2.5939186 -1.4741338 0.38795018
1.9765263 -1.1004763 0.39611265
1.9768448 -1.0557894 0.39242509
1.9773127 -0.99016517 0.38721767
1.9777696 -0.92621684 0.38240749
1.9781358 -0.86376071 0.39758226
1.9785718 -0.80273092 0.39329326
2.2517407 -0.80059278 0.38601846
2.3092296 -0.7983191 0.3725903
2.4303379 -0.81642687 0.39100286
2.4920049 -0.81292236 0.37614024
2.5672867 -0.81267035 0.38638484
2.5985932 -0.79760683 0.3900243
1.978928 -0.75281507 0.38998485
1.981671 -0.72418469 0.38861191
2.5989456 -0.74819857 0.38806188
2.5993826 -0.68703645 0.38578063
2.5997968 -0.62358546 0.39263809
2.6001899 -0.56673336 0.39382803
2.6006131 -0.50746155 0.39212152
2.6010325 -0.44864285 0.39060283
2.6014493 -0.39027637 0.38929492
2.6018636 -0.33224952 0.38816842
2.6022754 -0.27454835 0.38724628
2.6027675 -0.205617 0.38638178
2.4310291 -0.12787963 0.39322171
2.6030941 -0.15980577 0.38594544
2.301621 -0.060494363 0.3927483
2.4287541 -0.095763378 0.381603
2.6736288 -0.093712755 0.37183547
2.2747469 -0.039853584 0.37772495
2.3057022 -0.026899176 0.39678863
2.4311399 0.021292932 0.38537756
2.6742985 0 0.37170038
2.6048872 0.091308951 0.38573217
2.6052949 0.14849409 0.38617536
2.6057048 0.20585097 0.38681787
2.6061985 0.27496415 0.38783011
2.6066108 0.33285645 0.38887668
2.6070278 0.39111528 0.39012972
2.6074455 0.44974971 0.39156589
2.6078682 0.50887936 0.39321551
2.6082933 0.56850034 0.39505541
1.9968354 0.64170521 0.38632479
2.6087759 0.62876552 0.38504556
1.9892112 0.6877265 0.38768065
2.405566 0.71536505 0.37137729
2.4907639 0.71701598 0.38354602
2.5719838 0.71606231 0.38310814
2.60921 0.68963468 0.38723916
1.9896342 0.74695802 0.39145434
2.4281547 0.72208244 0.39769301
2.5321598 0.72893256 0.41366574
1.9900651 0.80739594 0.39557797
1.9905462 0.86917639 0.39018235
1.9910374 0.93243247 0.38497299
1.9915006 0.99727219 0.38999626
2.6141469 1.3667762 0.39677981
2.5936618 -1.4739881 0.45489523
1.9762872 -1.1003431 0.4579623
1.9766068 -1.055662 0.45369926
1.9770747 -0.99004596 0.44767877
1.977531 -0.9261052 0.44211736
1.9778968 -0.86365616 0.45679632
2.5583191 -0.86778718 0.4649117
1.9783323 -0.80263382 0.45186847
2.3060298 -0.81989497 0.42852089
2.5644383 -0.8241415 0.44727251
2.598335 -0.79752755 0.45127785
1.9786884 -0.75272387 0.44806728
1.9849719 -0.72539091 0.44732246
2.5986884 -0.74812448 0.44900736
2.5991247 -0.68696827 0.44636774
2.5995021 -0.62997252 0.45101598
2.5999308 -0.56667691 0.4538523
2.6003544 -0.50741118 0.45188579
2.6007743 -0.44859836 0.45013565
2.601191 -0.39023766 0.44862846
2.6016049 -0.33221653 0.44733018
2.6020174 -0.27452111 0.4462676
2.6025093 -0.20559661 0.44527128
2.6028728 -0.15216763 0.44863805
2.3391025 -0.061479505 0.43096426
2.6031876 -0.10037817 0.46088362
2.3230393 -0.040699668 0.42792261
2.6036577 -0.022806302 0.4795596
2.6040347 0.019552911 0.46273711
2.604569 0.088442259 0.45336851
2.6050365 0.14847936 0.44503343
2.6054461 0.20583053 0.44577384
2.6059396 0.27493683 0.44694027
2.6063523 0.33282349 0.44814649
2.6067688 0.39107645 0.44959053
2.607187 0.44970518 0.45124561
2.607609 0.50882882 0.45314649
2.6080344 0.56844389 0.45526689
1.9950289 0.64305413 0.43976766
2.6085172 0.62870318 0.44551727
1.9889709 0.68764335 0.44542012
2.5791757 0.71806449 0.44451883
2.6089513 0.68956637 0.44805539
1.9893941 0.7468679 0.44975588
2.5010858 0.7437706 0.43321714
2.5793407 0.75069052 0.46224728
1.9898248 0.80729842 0.45449358
2.5796001 0.79177713 0.4724561
1.9902921 0.86907095 0.4529838
1.9907976 0.9323203 0.44508356
1.9912513 0.99441659 0.44807571
2.613939 1.3666676 0.44977385
2.5719121 -1.4616275 0.51795208
2.5935068 -1.4738997 0.49526563
1.9764467 -1.0555767 0.49487433
1.9769148 -0.98996592 0.48830751
1.9773713 -0.92603034 0.48224148
2.555521 -0.90860009 0.52427667
2.5972271 -0.92342848 0.50769222
1.9777365 -0.86358619 0.49660227
2.5557878 -0.8710624 0.52194446
2.5975916 -0.87266111 0.50471336
1.9781719 -0.80256885 0.49124494
2.5568626 -0.80941027 0.5184291
2.5980396 -0.80992061 0.50122374
1.9785271 -0.75266254 0.48711228
2.5610437 -0.74941605 0.52800405
2.5984802 -0.74806458 0.49803784
2.5615439 -0.69512707 0.53124344
2.591646 -0.6849848 0.50591475
2.5574179 -0.62822878 0.53315198
2.5982268 -0.62621176 0.50443906
2.5578394 -0.56926703 0.53052276
2.5997233 -0.56663167 0.50219619
2.5582573 -0.51082158 0.52815306
2.6001465 -0.50737053 0.50002009
2.5586693 -0.45289835 0.5260731
2.6005664 -0.4485625 0.49808362
2.5591621 -0.38393235 0.52391863
2.6009829 -0.39020643 0.49641576
2.5595696 -0.32684875 0.52240252
2.6013963 -0.33218986 0.49497911
2.5599747 -0.27008545 0.5211615
2.6018088 -0.27449912 0.49380338
2.5603786 -0.21354988 0.52015829
2.6023006 -0.20558012 0.49270102
2.5607803 -0.15721525 0.5194242
2.6027088 -0.14834598 0.49203724
2.5612619 -0.089777865 0.51886398
2.6030657 -0.091243185 0.50349528
2.5616627 -0.033659048 0.51866317
2.6034718 -0.034208402 0.50330019
2.5620642 0.022444053 0.51872784
2.6038792 0.02281036 0.50336283
2.5625436 0.089824677 0.51912361
2.604435 0.097004175 0.49785584
2.5630262 0.15735501 0.51987976
2.6048279 0.14846745 0.49243778
2.5634284 0.21380496 0.52077788
2.6052382 0.20581411 0.49325719
2.563834 0.27049455 0.52194721
2.605731 0.27491483 0.49454781
2.5642405 0.32744589 0.52335584
2.606144 0.33279687 0.49588251
2.5646491 0.38475752 0.525042
2.6065595 0.39104506 0.49748018
2.5651438 0.45404637 0.52740431
2.6069784 0.44966924 0.49931169
2.5655599 0.51228046 0.5296607
2.6074002 0.50878805 0.50141507
2.5659797 0.57108074 0.53221124
2.6078265 0.56839859 0.50376153
1.9885329 0.64868367 0.48131096
2.5664039 0.63043696 0.53502536
2.6035864 0.62749738 0.50546235
1.9888091 0.68758744 0.48423454
2.5689766 0.69712859 0.53280139
2.5966599 0.68631041 0.50687093
1.9892316 0.74680686 0.48894799
2.5687742 0.75168401 0.51737237
2.6091826 0.75114793 0.50008923
1.989664 0.80723315 0.4940989
2.5676312 0.78810346 0.51917732
2.6095374 0.80096602 0.50275463
1.9901447 0.86903369 0.48963863
1.9906368 0.93224484 0.48547682
1.9910207 0.98610866 0.49070865
2.5718105 1.3590505 0.53575087
2.6137323 1.3665595 0.5030452
2.5516531 -1.4501144 0.56735104
2.5553133 -0.90852624 0.5739916
2.5555813 -0.870992 0.57143849
2.5560231 -0.80914927 0.56744951
2.5564072 -0.74806696 0.57599896
2.5568371 -0.68780851 0.57257485
2.5572629 -0.6281907 0.56944227
2.5576837 -0.5692324 0.56663394
2.5580869 -0.5084576 0.57122755
2.5584617 -0.45286164 0.57387704
2.5589547 -0.38390124 0.57152677
2.5593622 -0.32682225 0.56987292
2.5597677 -0.27006358 0.56851918
2.5601709 -0.21353252 0.56742471
2.5605726 -0.1572025 0.56662393
2.5610547 -0.089770608 0.56601292
2.5614541 -0.03365631 0.56579351
2.5618553 0.022442222 0.56586409
2.5623364 0.089817412 0.56629622
2.5628183 0.15734226 0.56712085
2.563221 0.21378766 0.56810069
2.5636251 0.2704725 0.56937599
2.5640333 0.32741943 0.57091308
2.5644417 0.38472641 0.57275236
2.564929 0.45111054 0.57220101
2.5654044 0.51224941 0.56571329
2.5658233 0.57104605 0.56843728
2.5662472 0.63039845 0.57144284
2.5666764 0.69045752 0.57477838
2.5671623 0.75121492 0.56612337
2.5674434 0.79421449 0.57500088
2.5716558 1.3589686 0.57555628
2.5513973 -1.4499688 0.63459957
2.5515542 -1.4206363 0.64498043
2.5528631 -1.2228453 0.65135396
2.5531535 -1.182025 0.64741826
2.5548997 -0.92864007 0.6407159
2.5553746 -0.87092161 0.62123466
2.5558155 -0.80908352 0.61689776
2.6256618 -0.80595917 0.65755033
2.5562515 -0.74802136 0.61289001
2.6260185 -0.7559517 0.65420276
2.5566108 -0.68474364 0.63058639
2.5571077 -0.62815261 0.60591346
2.6149061 -0.63012969 0.64394808
2.5575278 -0.56919771 0.60292512
2.627327 -0.57264805 0.64375865
2.5580752 -0.5146693 0.61659765
2.5582447 -0.44819894 0.63147867
2.5586793 -0.38959143 0.62567109
2.5591512 -0.32679528 0.61764508
2.6289942 -0.32402861 0.65888184
2.5595589 -0.27004158 0.61617845
2.6294103 -0.26576406 0.65735883
2.5599542 -0.20975143 0.62290281
2.6296589 -0.23092552 0.65659928
2.5602903 -0.16168657 0.62374783
2.6303201 -0.13836294 0.65515113
2.5608461 -0.089763291 0.61346215
2.6306489 -0.092210047 0.65474695
2.5612454 -0.03365358 0.61322445
2.6310601 -0.034570895 0.65449345
2.5616617 0.028050564 0.61929512
2.6313906 0.01152497 0.6545254
2.5620742 0.089808226 0.62571758
2.5626075 0.15732929 0.61466247
2.6323781 0.15003775 0.65582752
2.5630105 0.21377012 0.61572456
2.6327915 0.20799084 0.65691847
2.5634172 0.27045056 0.61710733
2.6171052 0.27597147 0.65458554
2.5637703 0.32738587 0.63081872
2.5641639 0.37894598 0.62658852
2.5648305 0.45978686 0.61776769
2.5656939 0.50841087 0.60997421
2.635257 0.53819841 0.64390671
2.568716 0.57166082 0.63006347
2.5659695 0.62437236 0.62610561
2.6361265 0.65980572 0.65055996
2.566519 0.6904152 0.61159104
2.6363897 0.69681847 0.65283519
2.5669525 0.75115359 0.61545575
2.6367447 0.7465663 0.65606141
2.5673409 0.81272238 0.63220417
2.6295936 0.79451865 0.65764236
2.5676436 0.86255217 0.64845473
2.5695996 1.1219585 0.64519423
2.571497 1.3159261 0.62465751
2.5714474 1.3588586 0.62893581
2.5511899 -1.4498509 0.68886304
2.5513988 -1.4205496 0.68553329
2.6059494 -1.4063396 0.69516611
2.6217883 -1.3562161 0.69295597
2.6221988 -1.2987161 0.68694496
2.5527053 -1.2227696 0.69082022
2.5529971 -1.1819526 0.68664652
2.606504 -1.1516286 0.69549507
2.6234751 -1.1046979 0.69476104
2.623858 -1.0511334 0.68987942
2.6241412 -1.0114205 0.68639183
2.5546641 -0.93363291 0.68929702
2.6129372 -0.90331322 0.68770152
2.6251023 -0.86909693 0.68784648
2.6255002 -0.80590963 0.69600844
2.6258566 -0.75590509 0.69246489
2.5563123 -0.69110042 0.69063079
2.611275 -0.63270277 0.68629122
2.6271114 -0.57260114 0.69403416
2.6275387 -0.51271564 0.69102675
2.5580194 -0.44122371 0.69447118
2.558265 -0.40672186 0.69302028
2.6272442 -0.38237086 0.6852929
2.6288314 -0.32400849 0.69613534
2.6292467 -0.26574755 0.69452608
2.5597255 -0.20220727 0.68694872
2.6294966 -0.23091125 0.69372392
2.5599678 -0.16841798 0.68636709
2.630156 -0.13835433 0.69219351
2.6304858 -0.092204332 0.69176674
2.6308968 -0.034568749 0.69149876
2.5614903 0.044877332 0.68539256
2.6312263 0.011524251 0.69153225
2.5618105 0.089798972 0.68581146
2.6322153 0.15002847 0.69290841
2.6326287 0.20797795 0.69406104
2.6169403 0.27595407 0.69159538
2.5635064 0.32735217 0.69140244
2.5637519 0.36166978 0.6926837
2.6341045 0.40696776 0.6879859
2.6344426 0.45440641 0.69004774
2.6348691 0.51414806 0.69295472
2.5700262 0.57193798 0.69197589
2.5656371 0.61833382 0.69358742
2.635962 0.65976459 0.68860859
2.6362267 0.69677544 0.69101727
2.6365821 0.74652028 0.69443226
2.5672185 0.82505381 0.68336028
2.6294301 0.79446918 0.69610536
2.5674858 0.86249912 0.68638086
2.6379638 0.9249391 0.68227577
2.6384323 0.99053293 0.68785697
2.5690086 1.0685176 0.69210154
2.6253777 1.0516744 0.69027293
2.5693469 1.1085016 0.68297195
2.6398411 1.1802651 0.69230813
2.6401949 1.2223233 0.68300712
2.5715911 1.3159744 0.69160742
2.6248262 1.3143334 0.68912482
2.6406007 1.2791512 0.68880409
2.5712388 1.3587482 0.68271506
2.5509796 -1.4497315 0.74356794
2.5511885 -1.4204327 0.73997378
2.6057377 -1.4062254 0.75037235
2.6215727 -1.3561049 0.74798608
2.6219838 -1.2986095 0.74149787
2.552495 -1.2226689 0.74381727
2.552774 -1.1791342 0.74697435
2.6062899 -1.1515342 0.74885106
2.6232591 -1.104607 0.74806046
2.6236415 -1.0510466 0.74280423
2.6238704 -1.0113161 0.75231266
2.5544348 -0.93037558 0.74981648
2.6126728 -0.90322185 0.75260532
2.6248319 -0.86900729 0.7527625
2.6252823 -0.8058427 0.74766511
2.6256399 -0.75584269 0.74385893
2.5561008 -0.68761045 0.7457568
2.6174822 -0.62773347 0.74876738
2.626838 -0.57254153 0.75744724
2.6272652 -0.51266235 0.75416499
2.5577531 -0.44117776 0.7559849
2.5579996 -0.40667963 0.75440562
2.6269779 -0.38233209 0.74790931
2.6286118 -0.32398146 0.74618787
2.6290283 -0.26572543 0.74446326
2.5594592 -0.2021862 0.747796
2.6292768 -0.23089197 0.74360305
2.5596998 -0.16840035 0.74716258
2.6298816 -0.13833988 0.75450569
2.6302118 -0.092194706 0.7540406
2.6306236 -0.034565169 0.75374889
2.561223 0.044872649 0.74610192
2.6309526 0.01152305 0.75378531
2.5615427 0.089789592 0.74655777
2.6319966 0.15001601 0.74272919
2.6324098 0.20796067 0.74396467
2.6120915 0.2787337 0.74542475
2.5632381 0.32731792 0.75264394
2.5634837 0.36163199 0.75403875
2.633831 0.40692556 0.75084662
2.6341686 0.45435917 0.7530967
2.6345949 0.51409459 0.75626916
2.5686088 0.57457894 0.75097007
2.5654221 0.6182819 0.74345654
2.6356893 0.65969628 0.75259304
2.6360087 0.69671786 0.74230385
2.6363642 0.74645853 0.74597222
2.5669518 0.82496804 0.74685675
2.62921 0.79440278 0.74776876
2.567219 0.86240941 0.75015789
2.6376922 0.92484379 0.74780148
2.6381645 0.98667032 0.7459504
2.5687437 1.0684073 0.75741899
2.6251597 1.051587 0.74322748
2.5690818 1.1083871 0.7485643
2.6395693 1.1801436 0.75989008
2.6398456 1.2151415 0.75697333
2.6400785 1.2363096 0.73877013
2.5713248 1.3158381 0.75912058
2.6246078 1.314224 0.74384999
2.6403835 1.2790462 0.74350441
2.5709741 1.3586086 0.75058442
2.5507689 -1.4496117 0.79875469
2.5509243 -1.4202857 0.80873102
2.6055236 -1.4061098 0.80606449
2.6213558 -1.3559926 0.80350065
2.6217108 -1.2984744 0.81039619
2.5522287 -1.2225412 0.81077677
2.5524793 -1.184428 0.81153834
2.6027076 -1.1526794 0.81008375
2.6230402 -1.1045147 0.8018465
2.6233675 -1.0509368 0.80967253
2.6235962 -1.0112104 0.81894946
2.5541282 -0.93706405 0.81289452
2.6124587 -0.90314782 0.8050971
2.6246128 -0.86893487 0.80526412
2.6250441 -0.80262208 0.80939406
2.6253645 -0.75576347 0.8088181
2.5558319 -0.68753803 0.80900896
2.6142063 -0.62996119 0.80899358
2.626617 -0.57249331 0.80875349
2.6270437 -0.51261914 0.8052488
2.5575366 -0.44114035 0.80577332
2.5577826 -0.40664512 0.80409002
2.6267083 -0.38229287 0.81134623
2.6283364 -0.32394752 0.80947709
2.6287527 -0.2656976 0.80760616
2.5591886 -0.20216483 0.80946773
2.6289999 -0.23086764 0.80667263
2.5594289 -0.16838253 0.80878204
2.6296043 -0.1383253 0.81754398
2.6299343 -0.092184991 0.81703997
2.6303463 -0.034561522 0.81672382
2.5609519 0.044867892 0.80763382
2.6306748 0.011521835 0.81676322
2.5612719 0.0897801 0.80812746
2.6317194 0.15000021 0.8057248
2.6321332 0.20793884 0.80706519
2.6204512 0.27344459 0.8084631
2.5629728 0.32500261 0.80961514
2.5632668 0.36160135 0.80369902
2.6335588 0.40452176 0.80928135
2.6339474 0.45432097 0.80410826
2.6343737 0.51405144 0.80749577
2.5708308 0.56873852 0.81205159
2.5651538 0.61821723 0.80651432
2.6354129 0.65962714 0.81729758
2.6357329 0.69664496 0.8071273
2.6360877 0.74638033 0.81111598
2.5666826 0.82488155 0.811068
2.6274686 0.79638934 0.8075574
2.5669498 0.86231905 0.8146531
2.6374168 0.92474735 0.81403863
2.6379497 0.99364352 0.81097478
2.5685291 1.0683181 0.81024539
2.6248834 1.0514764 0.81013316
2.568814 1.1082716 0.81486917
2.6393495 1.1800452 0.8145268
2.6396499 1.2220709 0.81951529
2.5711093 1.3157277 0.81370151
2.6295574 1.2975875 0.8122313
2.6401656 1.2789406 0.79868662
2.5707073 1.3584675 0.81916469
2.5505016 -1.4494597 0.86850786
2.5506563 -1.4201363 0.8782618
2.6053064 -1.4059926 0.86228389
2.6211231 -1.3529621 0.8676154
2.6214359 -1.2983383 0.88007033
2.5519595 -1.2224123 0.87851638
2.5522513 -1.1816074 0.87320876
2.6058035 -1.151319 0.87070394
2.6227643 -1.1043986 0.8698563
2.6230919 -1.0508264 0.87732029
2.6233742 -1.0111248 0.87288475
2.5539138 -0.93335873 0.87055868
2.6121883 -0.90305442 0.8714965
2.6243351 -0.86884284 0.87167531
2.6247284 -0.80926991 0.87366724
2.6250863 -0.75568342 0.87455982
2.5555594 -0.68746477 0.87304837
2.6105168 -0.63251919 0.86554688
2.6263778 -0.57003158 0.86828029
2.626766 -0.5125649 0.86989284
2.5572648 -0.44109353 0.86880332
2.5575101 -0.40660179 0.86698794
2.6264348 -0.38225305 0.8755728
2.628056 -0.32391298 0.87355345
2.6284721 -0.2656692 0.87153435
2.5589161 -0.20214331 0.87193227
2.6287203 -0.2308431 0.87052727
2.5591567 -0.16836461 0.87119365
2.6293817 -0.13831359 0.8686074
2.6297102 -0.092177145 0.86807156
2.6301217 -0.034558572 0.86773551
2.5606799 0.044863131 0.86995697
2.6304507 0.011520853 0.86777747
2.5609996 0.089770555 0.87048858
2.6314387 0.1499842 0.86950397
2.6318521 0.20791662 0.87095052
2.6115251 0.27867317 0.87189502
2.5627446 0.32953632 0.87011182
2.5629933 0.36156282 0.86656642
2.6333232 0.40920883 0.87136066
2.6336675 0.45427272 0.86866027
2.6340866 0.51099986 0.86885387
2.5692604 0.57176757 0.86833125
2.5648804 0.61815143 0.8703562
2.6351891 0.65957105 0.86968946
2.6354527 0.69657093 0.87273133
2.6358085 0.74630123 0.8770445
2.5664651 0.8248117 0.86306083
2.6301689 0.79217958 0.87144834
2.5667319 0.8622458 0.86687553
2.6371937 0.92466915 0.86765063
2.6376617 0.99024361 0.87474805
2.5683117 1.0682276 0.86360747
2.6246052 1.0513649 0.87781847
2.5685971 1.1081779 0.86853594
2.6391282 1.1799462 0.8696996
2.6394279 1.2219682 0.87502587
2.5708923 1.3156166 0.86881787
2.6330936 1.2938629 0.87661618
2.6401029 1.2931854 0.8422119
2.5704906 1.3583529 0.87465125
2.5502312 -1.4493061 0.93910116
2.5504413 -1.4200165 0.93456221
2.6019528 -1.4071289 0.92697752
2.6208591 -1.3557359 0.93038356
2.6212125 -1.2982277 0.93648612
2.5517414 -1.2223079 0.93338746
2.5520332 -1.1815063 0.92774832
2.6088951 -1.1499573 0.93220675
2.6224856 -1.1042812 0.93871248
2.6228671 -1.0507363 0.93211627
2.6231515 -1.011039 0.92740464
2.5536969 -0.93327951 0.92358965
2.6119137 -0.90295935 0.93874884
2.6240549 -0.8687501 0.93893987
2.6245062 -0.80560446 0.9325822
2.6248639 -0.75561929 0.92783475
2.5553434 -0.6874066 0.92496508
2.6167107 -0.62754846 0.93063587
2.6260748 -0.57478487 0.93170565
2.6264861 -0.51251024 0.93539387
2.5569897 -0.44104606 0.93269396
2.5572371 -0.40655842 0.93074596
2.6262147 -0.38222104 0.92764038
2.6278327 -0.32388544 0.92549992
2.6282487 -0.26564664 0.92336071
2.5586953 -0.20212585 0.92259097
2.6284969 -0.23082349 0.92229378
2.5589194 -0.16609804 0.92943174
2.6291006 -0.13829879 0.93330258
2.6294298 -0.092167303 0.9327271
2.6298406 -0.03455488 0.93236589
2.5604026 0.044858273 0.93326801
2.6301696 0.011519622 0.9324109
2.5607226 0.08976084 0.93383831
2.6312156 0.14997149 0.92120981
2.6316292 0.20789899 0.92274237
2.6158879 0.27584258 0.92803687
2.5624738 0.32722032 0.92857242
2.5627196 0.36152416 0.93029326
2.633049 0.40680474 0.93127775
2.6333873 0.45422441 0.93406874
2.633862 0.51737511 0.93258125
2.5678396 0.57440686 0.92954558
2.5646615 0.61809862 0.92211217
2.6349657 0.65951514 0.92266768
2.6352296 0.69651192 0.92589492
2.6355839 0.74623758 0.93047023
2.5661914 0.82472366 0.92890722
2.6284225 0.79416472 0.93270779
2.5664587 0.86215401 0.93301314
2.6369686 0.92459023 0.92184317
2.6374373 0.99015933 0.92938417
2.5680382 1.0681139 0.93116111
2.6243782 1.0512739 0.93264502
2.5683784 1.1080837 0.92278403
2.6389036 1.1798458 0.92545056
2.6392033 1.2218642 0.93111825
2.5706739 1.3155049 0.92451251
2.6343477 1.2903914 0.93916506
2.5702727 1.3582379 0.93071997
2.5500135 -1.4491825 0.99630713
2.5502234 -1.4198953 0.99149173
2.6048121 -1.4057255 0.99090064
2.6205928 -1.3585075 0.99400568
2.6209905 -1.2981178 0.99353331
2.5515249 -1.2222042 0.98889208
2.5518169 -1.1814063 0.98291773
2.6053061 -1.1510996 0.99558705
2.6222625 -1.1041873 0.99453342
2.6226459 -1.0506477 0.98754579
2.6229289 -1.0109532 0.98255348
2.5534573 -0.93001962 0.98701501
2.6116905 -0.90288234 0.99329054
2.6238298 -0.86867559 0.99349225
2.6242802 -0.80553526 0.98676491
2.6246378 -0.7555542 0.98174149
2.555063 -0.68733138 0.99079186
2.6134279 -0.62977362 0.99313468
2.6258304 -0.57232195 0.99283838
2.6262572 -0.51246554 0.98853606
2.5567648 -0.44100732 0.98455065
2.5570116 -0.40652257 0.982494
2.6259904 -0.38218847 0.9803437
2.6275451 -0.32384995 0.9913649
2.6279609 -0.26561752 0.98907346
2.5584128 -0.20210356 0.9868502
2.6282103 -0.23079832 0.98793107
2.5586154 -0.17058 0.99123383
2.6288118 -0.13828361 0.99893308
2.6291416 -0.092157193 0.99831724
2.6295528 -0.034551095 0.99793071
2.5601196 0.044853315 0.99752086
2.6298823 0.011518363 0.99797916
2.5604401 0.089750946 0.9981308
2.6309278 0.14995508 0.98676962
2.6313412 0.20787625 0.98841119
2.6196508 0.27336097 0.98954809
2.562192 0.32718435 0.99324852
2.5624938 0.36149234 0.98201621
2.6328185 0.4067691 0.98418546
2.6331573 0.45418468 0.98713523
2.633584 0.51389724 0.99129391
2.570045 0.56856459 0.9931941
2.5643816 0.6180312 0.9877364
2.6346796 0.65944356 0.98981446
2.6349497 0.69396883 0.98759842
2.6353574 0.7461735 0.98453039
2.5659127 0.82463413 0.99567926
2.6281934 0.79409552 0.98689669
2.5661812 0.86206079 1.0000807
2.6366875 0.92449158 0.99050385
2.637213 0.99007511 0.98465037
2.5677636 1.0679996 0.99963808
2.6241517 1.0511832 0.98810405
2.5681076 1.1052988 0.98557913
2.6386814 1.1797466 0.98182607
2.6389809 1.2217612 0.98783892
2.5704541 1.3153925 0.98082966
2.6341236 1.2902817 0.99637526
2.5700564 1.3581238 0.98741663
2.5497942 -1.4490578 1.0541922
2.550108 -1.4052706 1.0466138
2.6202133 -1.3993077 1.0236061
2.5555766 -1.3476 1.0471005
2.5808558 -1.3207154 1.0276896
2.5508084 -1.2913041 1.0562174
2.5979629 -1.2866824 1.0276906
2.5512047 -1.2358453 1.047255
2.5543768 -1.1656661 1.0478382
2.5520537 -1.1010396 1.0547214
2.5932734 -1.1053524 1.0273433
2.552429 -1.048556 1.0471233
2.6169009 -1.0483234 1.0273449
2.5542207 -0.99478018 1.048472
2.6227574 -1.0108871 1.0243315
2.553138 -0.9367007 1.0536035
2.553587 -0.87031227 1.0510242
2.6000035 -0.87342286 1.0270144
2.554189 -0.80856705 1.0437521
2.6204624 -0.80433458 1.0263923
2.557126 -0.74827218 1.0515332
2.6244648 -0.75550443 1.0225908
2.5547798 -0.68725508 1.0576264
2.5552044 -0.62768501 1.0518397
2.5954106 -0.62550592 1.026553
2.555625 -0.56877422 1.0466524
2.6089067 -0.56862223 1.0267031
2.5561471 -0.5103997 1.0420194
2.6206939 -0.51135385 1.0267047
2.5565741 -0.45252901 1.0512433
2.5605705 -0.38412562 1.0483353
2.6258202 -0.3821637 1.0202932
2.5614665 -0.32938629 1.0508906
2.5812652 -0.31813034 1.026405
2.5576441 -0.26983956 1.0545014
2.5863791 -0.27285805 1.0264063
2.5580468 -0.21335536 1.0524713
2.5908315 -0.22751588 1.0264076
2.5584486 -0.15707208 1.0509863
2.5972178 -0.13662167 1.0264102
2.5589292 -0.089696109 1.0498526
2.5991495 -0.091102183 1.0264115
2.5593297 -0.033628397 1.0494462
2.6005671 -0.034169935 1.0264132
2.5597303 0.02242361 1.0495769
2.60077 0.011390289 1.0264145
2.5602102 0.089742891 1.0503782
2.5606916 0.15721168 1.0519077
2.596591 0.14799479 1.0264186
2.5610943 0.21361028 1.0537252
2.5926907 0.20481139 1.0264202
2.5614994 0.2702482 1.0560912
2.586138 0.27283016 1.0263104
2.5619056 0.32714778 1.0589415
2.564096 0.38468045 1.0498005
2.6326442 0.40674219 1.0242903
2.5633013 0.45041201 1.0461376
2.6311445 0.45382923 1.0266423
2.5633392 0.51183707 1.0449519
2.6207707 0.51136887 1.0267347
2.5637581 0.57058638 1.0499835
2.5641816 0.62989104 1.0555351
2.5903666 0.64835227 1.0267389
2.5673399 0.69365382 1.0529574
2.6097536 0.68989587 1.0242038
2.5655837 0.75075102 1.0414181
2.6351838 0.74612427 1.0254956
2.565598 0.81218249 1.0484155
2.6248894 0.79311204 1.0267375
2.5660424 0.87455821 1.0561509
2.5924509 0.896231 1.0270662
2.5683949 0.92843789 1.0556601
2.5845032 0.91890454 1.0270669
2.567271 0.98955745 1.0440907
2.6348407 0.98916245 1.0256584
2.5674434 1.0547249 1.053283
2.6160929 1.0479949 1.0270271
2.5678759 1.1105348 1.0532292
2.5696962 1.1624541 1.0419352
2.6385107 1.1796702 1.0245212
2.5688107 1.2305632 1.0522847
2.6256597 1.2295575 1.0277644
2.5695441 1.3007911 1.0495744
2.5981536 1.2867769 1.0277662
2.5698328 1.3580054 1.0447841
2.5502477 -1.3619431 1.0825334
2.5513279 -1.194749 1.0832388
