# .PCD v0.7 - Point Cloud Data file format
VERSION 0.7
FIELDS x y z
SIZE 4 4 4
TYPE F F F
COUNT 1 1 1
WIDTH 1492
HEIGHT 1
VIEWPOINT 0 0 0 1 0 0 0
POINTS 1492
DATA ascii
2.6122715 1.0156363 0.22298642
2.612623 1.0599115 0.21598975
2.6129107 1.1002505 0.21719275
2.6132014 1.1409962 0.21844138
2.6134958 1.1822748 0.21974851
2.6137931 1.2240005 0.2211037
2.6139948 1.2521279 0.22204003
2.6142993 1.2948048 0.22349492
2.6146073 1.3379872 0.22500151
2.6148157 1.367126 0.2260413
2.5945325 -1.4595234 0.25444242
2.5948513 -1.4151123 0.25262448
2.5950587 -1.385874 0.25145319
2.5953686 -1.3425496 0.24975607
2.5956733 -1.2997357 0.24811694
2.5959752 -1.252854 0.25489238
2.5962219 -1.2157722 0.25775558
2.5965168 -1.1745932 0.25623399
2.5968065 -1.1338377 0.254767
1.9770341 -1.100759 0.26387787
2.5970945 -1.0935895 0.25336692
1.9772742 -1.0671318 0.26201981
1.9775896 -1.0229807 0.25964665
1.9778991 -0.97960889 0.25739437
1.978204 -0.93697047 0.25525856
1.978502 -0.89502013 0.25323474
2.456641 -0.89775836 0.24677637
2.4958181 -0.88737309 0.24992144
1.9787886 -0.85165852 0.25699195
2.3201864 -0.84789222 0.25503647
2.4121089 -0.85761076 0.26430476
2.4640572 -0.85184431 0.26916906
2.5197957 -0.84647852 0.27443734
2.5410588 -0.87846434 0.25367141
2.5687025 -0.86290783 0.25566667
1.9790195 -0.8150214 0.26297194
2.321342 -0.82533914 0.27630794
2.5689175 -0.82559896 0.26658696
1.9792963 -0.77286828 0.26677793
2.5992391 -0.781241 0.26411653
1.9809436 -0.73377776 0.26522565
2.5995448 -0.73603266 0.26692408
2.5998077 -0.69933069 0.26598164
2.5999298 -0.67499948 0.27732277
2.6001129 -0.6588766 0.26102182
4.1402149 -0.65822572 0.24697468
2.6004109 -0.61468899 0.26399356
4.140481 -0.62113518 0.24665654
2.6006677 -0.57876885 0.2632221
4.1407437 -0.5841369 0.24635793
2.6009228 -0.54307342 0.26250577
4.1410079 -0.54722548 0.24607901
2.6012602 -0.49575531 0.26162302
4.1412697 -0.51039451 0.24581948
2.6015124 -0.46045852 0.2610147
4.1415329 -0.47363856 0.24557939
2.6017625 -0.425336 0.26045921
4.1419253 -0.41863942 0.24525774
2.6020961 -0.37871617 0.25978848
4.1423163 -0.36376071 0.24497433
2.6024277 -0.33232155 0.25920051
4.1425772 -0.32724568 0.24481085
2.602674 -0.29764992 0.25881064
4.1428375 -0.29077655 0.24466631
2.6029215 -0.26308674 0.2584717
4.1430979 -0.25434768 0.24454074
2.6032495 -0.21712555 0.25808692
4.1433582 -0.21795343 0.24443406
2.6034942 -0.18273348 0.25784838
2.6037402 -0.14840475 0.25765988
4.1438775 -0.14524612 0.24427707
2.3971107 -0.10504992 0.24772182
2.4044993 -0.10537373 0.26992741
2.5590506 -0.089696705 0.24159476
2.6040964 -0.091275603 0.26901919
4.1441374 -0.10892192 0.24422678
2.2949314 -0.046928007 0.27108118
2.3242342 -0.050891235 0.25036329
2.5579391 -0.056023937 0.24140181
2.60426 -0.068448737 0.26896381
4.1443954 -0.072609834 0.24419513
2.3120759 -0.020252241 0.27995268
2.3374338 -0.020474358 0.26215711
2.5580282 -0.022406617 0.24135928
2.6045854 -0.022814428 0.26891488
4.1446552 -0.036304411 0.24418235
2.3987296 0.021011269 0.24766093
2.406121 0.021076012 0.2698608
2.5588894 0 0.24143128
2.6047492 0 0.26892146
4.1449146 0 0.24418826
2.6052065 0.057058789 0.25744897
4.1454325 0.072628006 0.24425623
2.6055326 0.10275518 0.25761956
4.1456933 0.1089628 0.24431847
2.6058593 0.14852625 0.2578696
4.1459513 0.14531881 0.24439931
2.6061053 0.18291675 0.25810698
4.1462111 0.18170175 0.24449909
2.6063504 0.21738492 0.25839436
4.146472 0.21811722 0.24461775
2.6066799 0.26346731 0.25884491
4.1467309 0.25457072 0.24475518
2.6069274 0.29813629 0.25923356
4.1469922 0.29106817 0.24491169
2.6071763 0.33292869 0.25967348
4.147253 0.32761508 0.24508718
2.6075091 0.37950468 0.26032892
4.1475129 0.36421707 0.24528167
2.6078429 0.42633075 0.26106793
4.1479063 0.41924512 0.24561191
2.608094 0.46162343 0.261675
4.1482997 0.47441247 0.24598067
2.6083484 0.49710703 0.26233596
4.1485639 0.51129347 0.24625243
2.6086874 0.54469556 0.26328945
4.1488271 0.54825872 0.24654366
2.6089439 0.58061069 0.26405975
4.1490922 0.58531463 0.24685463
2.0055819 0.63486362 0.26411563
2.6092024 0.61676794 0.26488608
4.1493578 0.62246686 0.24718535
1.9895155 0.65867281 0.26312143
2.6095486 0.6653254 0.26606378
4.149622 0.65972126 0.24753582
1.9897941 0.69767386 0.26473424
2.5799398 0.71827734 0.26458254
2.6098096 0.70202112 0.26700494
1.9900763 0.73716825 0.26644921
2.3188407 0.73402524 0.2727803
2.3222878 0.75755858 0.25219387
2.4708104 0.75838548 0.26683912
2.5274849 0.75162113 0.27223831
2.5801129 0.74273688 0.26525733
1.9904003 0.7792142 0.2626299
2.4181809 0.76547116 0.26186937
2.511291 0.794945 0.24852806
2.5554352 0.78435999 0.25220716
2.580339 0.76733887 0.25399193
1.9906919 0.81575328 0.25664243
2.4747427 0.80729115 0.24560148
3.457684 0.81734526 0.2407335
1.9910239 0.85899377 0.25287241
1.9913225 0.90082061 0.25487572
1.9916257 0.94332838 0.25699049
1.991935 0.98656148 0.25922099
2.6118493 0.9804945 0.2632201
1.9921683 1.0194631 0.26096824
2.6121972 1.0243969 0.25642368
2.6124678 1.0598485 0.25348303
2.6127546 1.1001847 0.25489473
2.6130459 1.1409283 0.25636023
2.6133409 1.1822048 0.25789431
2.6136379 1.2239277 0.25948471
2.6138909 1.2520781 0.24772343
2.6141942 1.2995051 0.25817868
2.6144526 1.337908 0.26405919
2.6146607 1.3670449 0.26527941
2.5943615 -1.464413 0.28992835
1.9768791 -1.1006727 0.30434003
1.9771194 -1.0670483 0.3021971
1.9774334 -1.0229 0.29945987
1.9777434 -0.97953176 0.2968623
1.9780474 -0.93689626 0.29439884
1.9783474 -0.89495027 0.29206502
1.9785726 -0.85567683 0.30349523
1.9788542 -0.81292742 0.30696157
2.2616038 -0.80409962 0.31209573
2.2863817 -0.81290919 0.29380769
2.3204298 -0.80219114 0.31923163
2.3780601 -0.82211435 0.30465162
2.4262004 -0.82683349 0.29895678
2.4717762 -0.8303473 0.29243755
2.5046418 -0.81704462 0.3189851
2.5344172 -0.82675779 0.29898039
2.5688548 -0.81316668 0.30219105
1.9791405 -0.77280748 0.30485886
2.5990448 -0.78946382 0.29656649
1.9806862 -0.73368287 0.30307007
2.5993929 -0.73598969 0.30298936
2.5996552 -0.69928962 0.30191952
2.599828 -0.67497301 0.3012414
2.5999999 -0.65076345 0.30058929
4.1400533 -0.65820003 0.28403148
2.6002579 -0.61465281 0.29966277
4.1403193 -0.62111092 0.2836656
2.6005142 -0.57873464 0.298787
4.1405816 -0.58411402 0.28332219
2.60077 -0.54304159 0.29797399
4.1408463 -0.54720414 0.28300145
2.6011071 -0.49572617 0.29697195
4.141108 -0.51037461 0.28270295
2.6013079 -0.46042234 0.30806607
4.1413713 -0.47362009 0.28242686
2.6015589 -0.42530271 0.3074106
4.1417637 -0.41862309 0.28205693
2.6018915 -0.3786864 0.30661887
4.1420746 -0.36373949 0.30012992
2.6022229 -0.33229545 0.30592489
4.1423364 -0.32722667 0.29992968
2.6024697 -0.2976265 0.30546474
4.1425958 -0.29075959 0.29975253
2.6027172 -0.26306608 0.30506474
4.1428561 -0.25433284 0.29959872
2.603045 -0.21710849 0.30461055
4.143117 -0.21794073 0.29946804
2.6032901 -0.18271917 0.3043291
2.6035364 -0.14839312 0.30410662
4.1437168 -0.14524049 0.28092921
2.4157047 -0.10586478 0.30360201
2.6039438 -0.091270253 0.30384496
4.1438942 -0.10891552 0.29921401
2.2850809 -0.060059637 0.30744913
4.1442327 -0.072606996 0.28083485
2.2700415 -0.039771147 0.30536872
2.2947736 -0.020100683 0.30865705
4.1444125 -0.036302283 0.29915959
2.4173279 0.021174178 0.30352631
2.6045954 0 0.30373445
2.6050024 0.057054315 0.30385768
4.1451898 0.07262376 0.29925013
2.6053283 0.10274713 0.304059
4.1454506 0.10895642 0.29932633
2.605655 0.1485146 0.30435407
4.1457081 0.14531028 0.29942539
2.6059012 0.18290243 0.30463433
4.1459684 0.18169111 0.29954764
2.6061466 0.2173679 0.30497351
4.1462293 0.21810445 0.29969302
2.6064751 0.2634466 0.30550522
4.1464882 0.25455582 0.29986137
2.6067228 0.29811293 0.30596396
4.1467495 0.29105115 0.30005312
2.6069717 0.33290255 0.30648318
4.1470098 0.32759589 0.30026811
2.6073036 0.37947482 0.30725667
4.1473513 0.36420283 0.28208447
2.6076276 0.42238712 0.30412018
4.1477451 0.41922879 0.28246427
2.6079402 0.46159622 0.29703093
4.14814 0.47439417 0.28288847
2.6081953 0.49707776 0.29778123
4.1484036 0.51127374 0.28320101
2.6085346 0.54466361 0.29886359
4.1486664 0.5482375 0.2835359
2.6087902 0.58057642 0.29973787
4.148931 0.58529186 0.2838935
2.0051045 0.63471252 0.30177015
2.6090479 0.61673146 0.30067581
4.1491976 0.62244278 0.28427389
1.9893591 0.65862107 0.30068046
2.6093955 0.66528642 0.30201274
4.1494622 0.65969592 0.284677
1.9896371 0.69761884 0.30252337
2.3116765 0.7095412 0.31441286
2.3376989 0.71752852 0.29607722
2.5797887 0.71823525 0.30033141
2.6096568 0.70198005 0.3030811
1.9899189 0.7371099 0.30448315
2.4262824 0.73306578 0.29561549
2.4746773 0.73591727 0.28955123
2.5057693 0.72133553 0.31571481
2.5392978 0.73098737 0.29635161
1.9902045 0.7771284 0.30656311
1.9905326 0.81976366 0.30308029
1.9908669 0.85892594 0.29164687
1.9911655 0.9007495 0.29395738
1.9914694 0.94325435 0.29639655
1.9917778 0.98648363 0.29896894
1.9920127 1.0193835 0.30098438
2.6142993 1.3378296 0.30319548
2.6145065 1.3669642 0.30459645
2.5941219 -1.4742495 0.33463469
1.976722 -1.1005852 0.34498781
1.9769627 -1.0669637 0.34255874
1.9772775 -1.0228193 0.33945608
1.9775866 -0.97945422 0.33651143
1.9778908 -0.93682212 0.33371896
1.9781816 -0.89278805 0.33680958
1.9784069 -0.85354948 0.34800035
1.9786971 -0.81286287 0.34549326
2.4149899 -0.81127095 0.34265223
2.4879713 -0.81160653 0.34027264
2.5657315 -0.81217802 0.33786985
1.9789836 -0.77274621 0.34312671
2.2393339 -0.79618168 0.35169348
2.2459264 -0.79852557 0.33130437
2.3074899 -0.79771763 0.33934203
2.598887 -0.7852754 0.34086573
1.9805303 -0.73362517 0.34111354
2.5992389 -0.73594606 0.33916867
2.5994997 -0.69924784 0.33797091
2.5997608 -0.66282916 0.33684713
2.5999675 -0.6266076 0.34773684
2.6001503 -0.6106196 0.33134767
2.6003609 -0.57870054 0.33446464
2.6006162 -0.54300946 0.33355445
2.6009536 -0.4956969 0.33243281
2.601155 -0.46039528 0.34346882
2.6014056 -0.42527762 0.34273791
2.601737 -0.3786639 0.34185505
2.6020699 -0.33227587 0.34108153
2.6023161 -0.29760894 0.34056845
2.6025639 -0.26305056 0.34012252
2.602891 -0.21709566 0.33961609
2.6031358 -0.18270831 0.33930218
2.4306798 -0.12786126 0.34921932
2.6033814 -0.1483843 0.33905411
2.4212623 -0.10610834 0.34772927
2.6037889 -0.091264822 0.33876234
2.2784603 -0.059885625 0.33727828
2.2801979 -0.059931293 0.35809067
2.2653499 -0.039688952 0.34548628
2.2881927 -0.020043042 0.34892875
2.4229312 0.021223258 0.34764868
2.6044414 0 0.33863929
2.4327192 0.042621255 0.34908438
2.6048489 0.057050951 0.33877671
2.6051745 0.10274106 0.33900115
2.6055007 0.14850581 0.33933008
2.6057475 0.18289164 0.33964261
2.6059928 0.21735507 0.34002078
2.6063225 0.26343119 0.34061372
2.6065683 0.29809526 0.34112495
2.6068172 0.33288282 0.34170383
2.6071501 0.37945247 0.34256631
2.6075466 0.4301908 0.33574438
2.6077871 0.46156913 0.33249897
2.6080401 0.4970482 0.33333853
2.6083806 0.54463142 0.33455032
2.6086364 0.58054221 0.33552903
2.0049419 0.63466108 0.33964968
2.6088951 0.61669528 0.33657905
1.9892009 0.65856868 0.33842367
2.6092415 0.6652472 0.33807552
1.9894793 0.69756341 0.34049797
2.2923489 0.70360887 0.34404552
2.4087262 0.71630478 0.33798605
2.4797497 0.71384531 0.35865667
2.4858613 0.7156046 0.33634701
2.5712743 0.71586478 0.3350684
2.6095033 0.70193869 0.33927149
1.9897611 0.73705149 0.34270376
1.9900471 0.77706695 0.34504497
1.9903364 0.81764513 0.3475256
1.9906704 0.85677308 0.3363286
1.991008 0.90067834 0.33321857
1.991312 0.94317985 0.33598351
1.9916199 0.98640549 0.33889943
1.9918554 1.0193031 0.34118411
2.6143527 1.3668839 0.34402782
2.5939703 -1.4741631 0.37459296
1.9765657 -1.1004982 0.38584831
1.976805 -1.0668786 0.38313133
1.9771202 -1.022738 0.3796612
1.9774296 -0.97937638 0.37636784
1.9777341 -0.93674791 0.37324476
1.9779941 -0.89479059 0.38011202
1.9782488 -0.85348141 0.38702691
1.9785398 -0.81279832 0.38423884
2.2606263 -0.80375201 0.39833936
2.4167793 -0.81187201 0.37726992
2.4920049 -0.81292236 0.37614024
2.5672867 -0.81267035 0.38638484
1.9788263 -0.77268469 0.38160679
2.2428551 -0.79743361 0.37369755
2.3092296 -0.7983191 0.3725903
2.5987334 -0.78522909 0.37732977
1.9803736 -0.73356712 0.3793681
2.5990803 -0.73180288 0.38337824
2.5992951 -0.69919288 0.3862142
2.599556 -0.66277695 0.38492993
2.5998538 -0.61856502 0.3874512
2.6000376 -0.60257781 0.37095702
2.6001563 -0.578655 0.38220745
2.6004109 -0.5429666 0.38116723
2.600749 -0.49565786 0.37988555
2.6010005 -0.46036792 0.37900215
2.6012506 -0.42525232 0.37819558
2.6015844 -0.37864172 0.37722173
2.6019154 -0.33225617 0.37636787
2.6021612 -0.29759124 0.37580168
2.6024098 -0.263035 0.37530971
2.6027369 -0.2170828 0.37475091
2.602984 -0.18269767 0.37440485
2.4202116 -0.1273106 0.38047302
2.6031461 -0.15980896 0.3742125
2.4277279 -0.09216065 0.37409243
2.6736288 -0.093712755 0.37183547
2.2896612 -0.06018002 0.38027442
2.2747469 -0.039853584 0.37772495
2.2988634 -0.020136507 0.38168558
2.4290085 0.007060844 0.37402162
2.6742985 0 0.37170038
2.4228323 0.04244804 0.38041747
2.6047764 0.068462312 0.37387231
2.6050205 0.102735 0.37407237
2.6053469 0.14849705 0.3744354
2.6055927 0.18288077 0.37478012
2.6058381 0.21734217 0.37519741
2.6061678 0.26341555 0.37585169
2.6064155 0.29807776 0.37641609
2.6066623 0.33286303 0.37705451
2.6069961 0.37943006 0.3780064
2.6073296 0.42624685 0.37907943
2.6075811 0.46153265 0.37996101
2.6078348 0.49700913 0.38092059
2.6081743 0.54458839 0.38230523
2.6084299 0.58049631 0.38342363
2.0047789 0.63460934 0.37773913
2.6086893 0.61664671 0.38462362
1.9890428 0.65851629 0.37637636
2.6090353 0.66519457 0.38633364
1.9893206 0.69750786 0.3786833
2.405566 0.71536505 0.37137729
2.4907639 0.71701598 0.38354602
2.5719838 0.71606231 0.38310814
2.6092978 0.70188344 0.38770044
1.989603 0.7369929 0.38113654
2.4281547 0.72208244 0.39769301
1.9898885 0.77700502 0.38374019
1.9901773 0.81757981 0.38649893
1.9905113 0.85877275 0.37956798
1.9908501 0.90060687 0.37268505
1.9911531 0.94310457 0.37577727
1.9914622 0.98632723 0.37903872
1.9916971 1.019222 0.38159394
2.6141999 1.366804 0.38356337
2.5938158 -1.4740754 0.41466472
1.9764068 -1.1004097 0.42694822
1.9766471 -1.0667934 0.42394203
1.9769615 -1.0226558 0.42010212
1.9772712 -0.979298 0.41645804
1.9775759 -0.93667305 0.41300231
1.9778351 -0.89471853 0.41961661
1.9780904 -0.85341305 0.4262951
1.9783808 -0.81273293 0.423224
2.3060298 -0.81989497 0.42852089
2.4438968 -0.82098168 0.4047358
2.5458558 -0.83048916 0.42040044
2.5683477 -0.81300622 0.4229224
1.9786665 -0.77262235 0.4203248
2.5985785 -0.78518218 0.4139379
1.9802169 -0.73350906 0.41785958
2.5988843 -0.73994398 0.41609192
2.5991418 -0.69915158 0.42254233
2.5994012 -0.66273749 0.42113703
2.5997455 -0.6145317 0.41938412
2.6000018 -0.57862061 0.41815847
2.6002572 -0.54293454 0.41702056
2.6005421 -0.49561846 0.42757112
2.6007938 -0.46033138 0.42657685
2.6010449 -0.42521864 0.42566916
2.6013775 -0.37861159 0.42457289
2.6017087 -0.33222976 0.42361188
2.6019564 -0.29756781 0.42297494
2.6022034 -0.26301414 0.42242098
2.6025305 -0.2170656 0.42179203
2.6027768 -0.18268311 0.42140239
2.4418466 -0.12844867 0.40597039
2.6029389 -0.15979625 0.42118585
2.4318323 -0.10657155 0.40413472
2.6033766 -0.091250367 0.43249348
2.3044357 -0.050511111 0.40358186
2.3310709 -0.051089585 0.42944342
2.3229527 -0.020347515 0.40673882
2.4333436 0.021314465 0.40401363
2.6040289 0 0.43233633
2.4436378 0.042812556 0.40576953
2.6045694 0.068456873 0.42080301
2.6048133 0.10272682 0.42102823
2.6051397 0.14848524 0.42143682
2.6053867 0.18286631 0.42182493
2.6056316 0.21732494 0.42229456
2.6059608 0.26339465 0.42303091
2.6062083 0.2980541 0.42366615
2.606456 0.33283672 0.42438489
2.6067891 0.37939996 0.42545614
2.6071229 0.42621303 0.42666388
2.6073747 0.46149611 0.42765623
2.6076801 0.49697959 0.41675064
2.6080196 0.54455608 0.41826552
2.6082752 0.5804618 0.41948906
2.0046144 0.63455737 0.4160642
2.6085355 0.61661029 0.42080212
1.9888825 0.65846324 0.41456375
2.608881 0.66515523 0.42267293
1.9891613 0.69745195 0.41710493
2.5792778 0.71809298 0.42031947
2.609143 0.70184183 0.42416823
1.9894434 0.73693377 0.41980702
2.5010858 0.7437706 0.43321714
2.5321598 0.72893256 0.41366574
1.9897282 0.77694237 0.42267469
1.9900174 0.81751418 0.42571345
1.990351 0.8607713 0.42314991
1.9906901 0.90053451 0.41238284
1.9909937 0.94302917 0.41580462
1.9913026 0.98624825 0.41941345
1.9915376 1.0191404 0.42224085
2.6140423 1.3667216 0.42324427
2.5936618 -1.4739881 0.45489523
1.9762477 -1.1003211 0.46831584
1.9764881 -1.0667076 0.46501839
1.9768031 -1.0225738 0.46080661
1.9771122 -0.9792192 0.45680928
1.9774159 -0.93659723 0.45301855
1.9776754 -0.89464641 0.45938495
2.5676107 -0.88764358 0.47566646
1.9779307 -0.85334408 0.46583158
2.5395577 -0.85311717 0.44478723
2.5677888 -0.86260092 0.47428149
1.9782209 -0.81266737 0.46247566
2.5681069 -0.82533842 0.46007803
1.9785068 -0.77256 0.45930764
2.598372 -0.78511977 0.46296465
1.9827094 -0.73441911 0.45723745
2.5987248 -0.7358005 0.46065989
2.5989866 -0.69910985 0.45903331
2.5992458 -0.66269791 0.45750663
2.5995898 -0.61449492 0.45560223
2.5998459 -0.57858586 0.45427069
2.5999639 -0.55475682 0.46547198
2.6001472 -0.53895032 0.44888878
2.6003871 -0.4955889 0.46349818
2.6006386 -0.46030387 0.46242031
2.6008902 -0.42519334 0.46143648
2.6012223 -0.37858897 0.46024799
2.6015525 -0.33220983 0.4592061
2.6018021 -0.29755017 0.45851597
2.6020474 -0.26299837 0.45791519
2.602375 -0.21705261 0.45723343
2.602622 -0.18267226 0.45681125
2.6028657 -0.14835492 0.4564769
2.6031404 -0.10266012 0.46798116
2.6036577 -0.022806302 0.4795596
2.6039543 0.011404803 0.46776831
2.6042795 0.057038479 0.46793449
2.6045961 0.098910056 0.46426567
2.6049848 0.14847639 0.4568485
2.605232 0.18285544 0.45726931
2.6054754 0.21731195 0.45777819
2.6058047 0.26337886 0.45857638
2.6060522 0.29803622 0.45926493
2.6063004 0.33281684 0.46004421
2.6066327 0.37937719 0.46120536
2.6069674 0.42618763 0.46251476
2.6072202 0.46146879 0.46359062
2.6075239 0.49694985 0.45274132
2.6078639 0.54452354 0.45438713
2.6081202 0.58042735 0.45571649
2.0044909 0.63451821 0.44496956
2.6083782 0.6165731 0.45714247
1.9887223 0.65841019 0.45301229
2.6087248 0.66511542 0.45917508
1.9889996 0.69739527 0.45578882
2.5791245 0.71805024 0.45661855
2.6089873 0.70179999 0.46079963
1.9892826 0.73687422 0.45874172
2.5792994 0.74250269 0.45778346
1.989568 0.77687979 0.4618755
2.5795112 0.77942169 0.47181553
1.9898573 0.81744832 0.4651961
1.9901507 0.85861701 0.46870965
1.9905298 0.90046191 0.45233917
1.9908339 0.94295341 0.45609263
1.9911424 0.98616892 0.46005103
1.9914184 1.0190793 0.45288944
2.6138873 1.3666406 0.46305537
2.5827093 -1.4677637 0.50660884
1.9763683 -1.066643 0.49600726
1.9766815 -1.022511 0.49151433
1.9769926 -0.97915995 0.48725116
1.9772964 -0.93654054 0.48320779
2.5972271 -0.92342848 0.50769222
1.9775561 -0.8945924 0.48939121
2.5974116 -0.89794594 0.50617135
1.9778094 -0.85329187 0.49566656
2.5976815 -0.86001867 0.50398433
1.9781007 -0.8126179 0.49209589
2.5563369 -0.82155484 0.51903737
2.59795 -0.82237679 0.50189078
1.9783862 -0.77251285 0.48872486
2.5579145 -0.78512102 0.51721257
2.5862229 -0.77736694 0.50551361
1.9785967 -0.74276996 0.4863179
2.5886507 -0.73699898 0.50385457
2.5851367 -0.70346636 0.50970143
2.5946758 -0.6615262 0.50536913
2.5992572 -0.61441576 0.50410759
2.5996389 -0.57853985 0.50265926
2.5998471 -0.54680997 0.5054689
2.6000307 -0.53100407 0.48875803
2.6002305 -0.4955591 0.49960548
2.6004825 -0.46027625 0.49844378
2.6007335 -0.42516777 0.49738321
2.6010659 -0.37856621 0.49610212
2.6013963 -0.33218986 0.49497911
2.601645 -0.29753223 0.4942351
2.6018906 -0.26298255 0.49358749
2.5604594 -0.20226522 0.51998466
2.6022189 -0.21703957 0.49285275
2.5606205 -0.17972428 0.51967782
2.6024647 -0.18266121 0.49239746
2.5608602 -0.14596072 0.51929736
2.6027088 -0.14834596 0.49203718
2.5611811 -0.10100538 0.51892394
2.6029844 -0.10265397 0.50355357
2.5615029 -0.056100894 0.51871037
2.6033094 -0.057016522 0.50334597
2.5617433 -0.022439159 0.51864964
2.6035538 -0.022805391 0.50328702
2.5619841 0.011220981 0.51868844
2.6037977 0.011404118 0.50332451
2.5623038 0.056119137 0.51887262
2.6041231 0.057035059 0.50350332
2.5626235 0.10106297 0.51921624
2.6045122 0.10652313 0.49595204
2.5629454 0.14608027 0.5197202
2.6048279 0.14846745 0.49243775
2.6050742 0.18284437 0.49289119
2.60532 0.21729897 0.49344015
2.605648 0.26336303 0.49430031
2.6058969 0.29801849 0.4950428
2.606144 0.33279687 0.49588251
2.6064758 0.37935436 0.49713397
2.6068103 0.42616197 0.49854541
2.6070633 0.46144098 0.49970508
2.6073153 0.4969101 0.50096679
2.6076555 0.54448009 0.50278789
2.6079121 0.58038104 0.50425893
2.5989313 0.62635791 0.5167582
2.6069191 0.61221373 0.50133586
1.9886013 0.65837014 0.48202646
2.5904582 0.66044438 0.51675928
2.608568 0.66507542 0.49581984
1.9888787 0.69735289 0.48498082
2.5784981 0.70572269 0.51676059
2.6088297 0.70175755 0.49757388
1.9891605 0.73682904 0.48812258
2.569242 0.73960745 0.51680356
2.6090937 0.73873711 0.49943787
1.9894466 0.77683246 0.49145722
2.5679688 0.77593201 0.51855922
2.6093612 0.77596945 0.50139195
1.9897361 0.81739855 0.49499053
2.6095374 0.80096602 0.50275463
1.9899555 0.84819508 0.49776825
1.9904093 0.90040743 0.48248315
1.9907129 0.94289607 0.48648655
1.9910207 0.98610866 0.49070865
2.6137323 1.3665595 0.5030452
2.5517569 -1.4501731 0.54057527
2.5555577 -0.89604455 0.53587186
2.5558259 -0.85858214 0.53351015
2.5560384 -0.82145989 0.54354721
2.5563884 -0.77243412 0.54066074
2.5566487 -0.73598224 0.53861797
2.5569074 -0.69982743 0.53669488
2.5571966 -0.65197712 0.54639447
2.5574512 -0.6163609 0.54466558
2.5577037 -0.58098656 0.54305238
2.5580385 -0.53411925 0.54105353
2.5582893 -0.4991774 0.53966713
2.5585351 -0.46442586 0.53839076
2.5588651 -0.41832307 0.53683555
2.5591912 -0.37247169 0.53545272
2.559437 -0.33822423 0.53452289
2.5596805 -0.30410117 0.53369832
2.5599227 -0.27006698 0.53295779
2.5600848 -0.2474308 0.53251994
2.5602827 -0.21730568 0.53593284
2.5605159 -0.17971693 0.54323089
2.5607574 -0.14595488 0.54283369
2.5610781 -0.10100131 0.54244328
2.5613978 -0.056098595 0.54221952
2.5616379 -0.022438236 0.54215598
2.5618787 0.01122052 0.54219657
2.5621989 0.056116834 0.54238915
2.5625205 0.1010589 0.54274875
2.5628424 0.14607441 0.54327559
2.5631349 0.17990074 0.53198707
2.5633769 0.21380067 0.5325796
2.5637004 0.25912324 0.53350818
2.5640254 0.30461812 0.53460437
2.5642705 0.33886296 0.5355323
2.5645154 0.3732473 0.53656673
2.5648441 0.41930127 0.53808987
2.5651748 0.46563184 0.53978801
2.5654254 0.50056982 0.5411725
2.5656757 0.53571463 0.54266894
2.5660119 0.5828746 0.54481643
2.5662665 0.61848545 0.54654294
2.5665112 0.65036249 0.54412168
2.5669184 0.70256829 0.53879625
2.5671771 0.73901302 0.54083604
2.567441 0.7757746 0.54299837
2.5717061 1.3445866 0.53448921
2.5719149 1.3735143 0.53701252
2.5516016 -1.4500849 0.58073884
2.5553513 -0.89597213 0.58557099
2.5556183 -0.8585124 0.58298993
2.5558841 -0.8214103 0.58054519
2.5562334 -0.77238733 0.57746214
2.5564933 -0.73593748 0.57528019
2.5567515 -0.69978476 0.57322609
2.5570421 -0.65193772 0.58280635
2.5572953 -0.61632335 0.58096188
2.5575488 -0.58095145 0.57924151
2.5578823 -0.53408659 0.57710916
2.5580797 -0.49913651 0.58767825
2.5583272 -0.46438813 0.58628869
2.5586572 -0.41828912 0.58459502
2.5589848 -0.37244162 0.58308953
2.5592289 -0.33819669 0.58207661
2.5594726 -0.30407649 0.58117884
2.5597963 -0.25872791 0.58013403
2.5599866 -0.2248072 0.59134358
2.5601625 -0.20976853 0.57524592
2.5603607 -0.17970604 0.57873529
2.5606008 -0.14594594 0.57831168
2.5609229 -0.1009952 0.57789612
2.5612423 -0.05609519 0.57765776
2.5614827 -0.022436876 0.57759011
2.5617232 0.01121984 0.57763326
2.5620432 0.056113429 0.57783848
2.5623651 0.10105278 0.57822162
2.5626867 0.14606555 0.57878286
2.5629261 0.17988609 0.57931513
2.5631685 0.21378328 0.57996041
2.5634925 0.25910223 0.58097178
2.5638165 0.30459332 0.58216524
2.5640631 0.33883551 0.58317608
2.5643082 0.37321714 0.58430254
2.5646372 0.41926748 0.58596134
2.5649567 0.46172443 0.58362794
2.5652683 0.50053912 0.57723588
2.56552 0.53568214 0.57883239
2.5658536 0.58283865 0.5811224
2.5661108 0.6184479 0.58296454
2.5664303 0.65832233 0.5770157
2.5667617 0.70252538 0.57547045
2.567024 0.73896897 0.57764983
2.5672855 0.77572763 0.57995886
2.5674968 0.81273687 0.59477544
2.5715518 1.3445058 0.57420099
2.5717595 1.3734314 0.57691157
2.5514486 -1.449998 0.62108576
2.5549266 -0.933676 0.62593949
2.5551958 -0.89591765 0.62307513
2.5554633 -0.85846037 0.6203289
2.555728 -0.82136005 0.61772716
2.556077 -0.77234006 0.6144467
2.5563395 -0.73589319 0.61212564
2.5565434 -0.69972783 0.62224156
2.5568736 -0.65587002 0.61559552
2.5907543 -0.6484493 0.63936269
2.5571923 -0.6162985 0.60528165
2.5574436 -0.58092749 0.60348874
2.5579994 -0.53021336 0.60922402
2.557924 -0.49910608 0.62391877
2.5581715 -0.46435982 0.62244356
2.5585001 -0.41826344 0.62064517
2.5588298 -0.37241906 0.61904734
2.559072 -0.33817595 0.61797142
2.5593104 -0.30405724 0.61701715
2.5596428 -0.25871241 0.61590987
2.5599101 -0.21351102 0.62696075
2.5600421 -0.20223226 0.6147868
2.5601497 -0.17969123 0.62638509
2.560384 -0.14968346 0.62198967
2.5607657 -0.100989 0.61353314
2.5610869 -0.056091778 0.61328053
2.5613239 -0.022435486 0.61320794
2.5615685 0.011219164 0.61325467
2.5618341 0.056108847 0.62541491
2.5621548 0.10104447 0.62582934
2.5625286 0.14605653 0.6144743
2.5627654 0.17987481 0.61503881
2.5630105 0.21377012 0.61572456
2.5633368 0.25908646 0.61679876
2.5636606 0.30457479 0.61806583
2.5639033 0.33881441 0.61913812
2.5641484 0.37319386 0.62033403
2.5644801 0.41924179 0.62209588
2.5649195 0.46945345 0.61616975
2.5658791 0.50065827 0.61371648
2.5701368 0.54057604 0.61252719
2.5656998 0.58280373 0.61766082
2.5659525 0.61840981 0.61961782
2.5662618 0.65428913 0.6094172
2.5666051 0.70248246 0.61232752
2.5668657 0.73892337 0.6146462
2.5671282 0.77568007 0.61710322
2.5673926 0.81270391 0.61967325
2.571497 1.3159261 0.62465751
2.5713971 1.3444251 0.61409366
2.5716031 1.3733479 0.61699206
2.5512936 -1.4499099 0.66167843
2.5515027 -1.4206076 0.65848017
2.590476 -1.4127262 0.67897284
2.6219463 -1.3417429 0.67774409
2.622252 -1.2987424 0.67336357
2.5528102 -1.2228199 0.66449112
2.5531015 -1.1820009 0.66047633
2.5898738 -1.1579248 0.67916757
2.623817 -1.0644528 0.67786843
2.6241012 -1.0246493 0.6744138
2.5546787 -0.94630849 0.66492116
2.5549502 -0.90839708 0.66181999
2.619081 -0.89260483 0.6624316
2.6253009 -0.85640514 0.6610961
2.6255724 -0.81850374 0.65840697
2.6258404 -0.78087002 0.65583712
2.6259651 -0.75593626 0.6669386
2.556386 -0.69968468 0.65924966
2.5566413 -0.66376078 0.65700251
2.5906513 -0.64842355 0.66425729
2.6269281 -0.62095726 0.65882158
2.6272731 -0.57263643 0.65629119
2.6274769 -0.53660947 0.66702974
2.627733 -0.50080061 0.66537368
2.5580957 -0.45277393 0.65834558
2.5583422 -0.41823766 0.65694475
2.6273499 -0.38238621 0.66039926
2.6289117 -0.33570349 0.65921247
2.6291595 -0.30067885 0.65822059
2.6294103 -0.26576406 0.65735883
2.5598311 -0.2022156 0.6627636
2.6296589 -0.23092552 0.65659928
2.559994 -0.17968029 0.66237289
2.5601547 -0.1571697 0.66203284
2.6302652 -0.13836005 0.66748011
2.6305127 -0.1037396 0.66714585
2.6308408 -0.057619505 0.66687071
2.6310887 -0.023046579 0.66679287
2.6313355 0.011524728 0.66684258
2.5616758 0.056105383 0.66134632
2.5619979 0.10103829 0.66178489
2.6322956 0.13846688 0.65564322
2.6325431 0.1731934 0.65622139
2.6328745 0.21959716 0.65716219
2.6332076 0.26614857 0.65830815
2.5742142 0.30578107 0.65694684
2.5637457 0.33879358 0.65534961
2.5639107 0.36169219 0.65617645
2.6341283 0.39515933 0.66252524
2.6342978 0.4188098 0.66346514
2.634552 0.45442533 0.66498232
2.6348915 0.50216562 0.66718626
2.5794778 0.55038565 0.65604305
2.6352034 0.53818744 0.65644217
2.5654879 0.58275557 0.66671127
2.5657961 0.61837208 0.6564703
2.6360712 0.65979195 0.66322452
2.6363351 0.69680411 0.66554421
2.6367447 0.7465663 0.65606141
2.6370132 0.78419256 0.65862769
2.5673242 0.82508779 0.65816945
2.622174 0.80484474 0.65665704
2.5675912 0.86253452 0.66107863
2.6379242 0.91195142 0.66819566
2.6381109 0.93796438 0.67029834
2.638392 0.97731864 0.67358261
2.6386743 1.0170219 0.67699951
2.5691137 1.0685612 0.66612834
2.6254325 1.0516963 0.67709172
2.5693045 1.0951358 0.66863936
2.5695467 1.1219354 0.6582073
2.63995 1.1803138 0.6654287
2.6402493 1.2223485 0.66950381
2.6405525 1.2648492 0.67372751
2.571697 1.3160285 0.66475517
2.6248806 1.3143606 0.67550063
2.6407568 1.2935057 0.67664456
2.5712395 1.3443426 0.65422899
2.5714467 1.3732643 0.65731716
2.5511384 -1.4498217 0.70248246
2.5513461 -1.4205203 0.69908655
2.5903718 -1.4126694 0.70636225
2.6215291 -1.4000106 0.68387157
2.6215961 -1.3804622 0.70015138
2.6218388 -1.3416878 0.70508331
2.6221457 -1.2986898 0.70052636
2.5526533 -1.2227447 0.70401216
2.5529449 -1.1819284 0.69975865
2.5897694 -1.157878 0.70561159
2.6231861 -1.1453559 0.69860065
2.6234751 -1.1046979 0.69476104
2.6237092 -1.064409 0.7042613
2.6239929 -1.0246069 0.70067215
2.5545211 -0.94625008 0.70312232
2.5547926 -0.90834111 0.69984305
2.6189215 -0.89255047 0.70117557
2.6251388 -0.85635221 0.69976139
2.6254106 -0.81845325 0.69691503
2.62568 -0.78082228 0.69419527
2.6258018 -0.7558893 0.70525533
2.5562286 -0.69964159 0.69652426
2.5564852 -0.66372025 0.69415039
2.5904951 -0.64838457 0.70181596
2.6267662 -0.62091899 0.69667232
2.6270571 -0.57258928 0.70663941
2.6273141 -0.53657621 0.70474392
2.6275692 -0.50076938 0.70299393
2.557884 -0.45273644 0.70720714
2.5581307 -0.41820306 0.7057023
2.6271915 -0.38236314 0.69773972
2.6287479 -0.33568257 0.69648439
2.6289978 -0.30066037 0.69543707
2.6292467 -0.26574755 0.69452602
2.5596728 -0.20220309 0.69904125
2.6294966 -0.23091125 0.69372392
2.5598335 -0.17966904 0.69862854
2.5599415 -0.1571566 0.7103864
2.5600488 -0.15716319 0.68615377
2.6301019 -0.13835147 0.70457786
2.6303482 -0.10373313 0.70422471
2.6306782 -0.057615943 0.70393479
2.6309252 -0.023045145 0.70385224
2.6311722 0.011524013 0.70390487
2.5615168 0.0561019 0.69754612
2.5618374 0.10103196 0.69800836
2.6321321 0.13845825 0.69271344
2.6323807 0.1731827 0.69332469
2.6327114 0.21958357 0.69431853
2.6330445 0.26613212 0.69552934
2.5704737 0.3091473 0.7007584
2.5635343 0.33876568 0.70398909
2.5636985 0.36166227 0.70487708
2.633965 0.39513487 0.69998479
2.6341348 0.41878384 0.7009778
2.634388 0.45439696 0.70258051
2.6347289 0.50213462 0.7049095
2.5793135 0.55035067 0.69313484
2.6349869 0.53814328 0.70680213
2.5653298 0.58271968 0.70376658
2.5656371 0.61833382 0.69358742
2.6359081 0.65975106 0.7013281
2.6361725 0.69676113 0.70378125
2.6365824 0.74652022 0.69443232
2.6368513 0.7841444 0.69714892
2.5671659 0.82503688 0.69598281
2.6220088 0.80479395 0.6950618
2.5674331 0.86248142 0.69905913
2.6378167 0.91191429 0.69421226
2.6380036 0.93792623 0.69639683
2.6382842 0.97727871 0.69980884
2.6385679 1.0169809 0.70335919
2.5689561 1.0684956 0.7050882
2.6253231 1.0516524 0.70345408
2.5691988 1.0950907 0.69467294
2.5693905 1.1218671 0.69735497
2.6397867 1.1802408 0.70574784
2.6401405 1.2222981 0.69651055
2.6404452 1.2647978 0.70090503
2.571538 1.3159473 0.70503348
2.6247718 1.3143061 0.70274907
2.6406479 1.2934524 0.70393932
2.5710838 1.3442612 0.69457376
2.5712886 1.3731798 0.69785172
2.5509796 -1.4497315 0.74356794
2.5511885 -1.4204327 0.73997378
2.5902672 -1.4126122 0.73386502
2.6214197 -1.3852649 0.73748171
2.6217289 -1.3416317 0.73253524
2.6219838 -1.2986095 0.74149787
2.552495 -1.2226689 0.74381727
2.5527864 -1.1818551 0.73932326
2.5896111 -1.1578074 0.74550784
2.6230242 -1.1452851 0.73873675
2.6233137 -1.10463 0.73467672
2.6235464 -1.064343 0.74408054
2.6238308 -1.0245436 0.74028862
2.5543621 -0.94619119 0.74160874
2.5546319 -0.90828395 0.73814952
2.6187611 -0.89249587 0.74014664
2.6249778 -0.8562997 0.73865372
2.625247 -0.81840229 0.73564851
2.6254616 -0.78075737 0.74571729
2.6256399 -0.75584269 0.74385893
2.556062 -0.69558519 0.74211693
2.5562718 -0.66366488 0.74406028
2.5903385 -0.64834523 0.7396031
2.6266022 -0.62088013 0.73480552
2.6268926 -0.57255346 0.74468476
2.6271505 -0.53654283 0.74268746
2.6274047 -0.50073802 0.74084306
2.5577247 -0.45270827 0.74413991
2.5579715 -0.41817704 0.74255645
2.6270318 -0.38233989 0.73530722
2.6285288 -0.33565459 0.74656224
2.628778 -0.30063522 0.74543929
2.6290283 -0.26572543 0.74446321
2.5595124 -0.2021904 0.73554713
2.6292768 -0.23089197 0.74360305
2.5596185 -0.17965394 0.74735415
2.5597811 -0.15714675 0.74697101
2.6299367 -0.1383428 0.74196279
2.6301847 -0.10372666 0.74159122
2.6305141 -0.057612341 0.7412858
2.6307607 -0.023043707 0.7411989
2.6310077 0.011523293 0.74125427
2.5613027 0.056097209 0.74619675
2.5616231 0.10102351 0.74669099
2.6319137 0.13844678 0.74252045
2.6321616 0.17316827 0.74317539
2.6324928 0.21956533 0.74424076
2.6328244 0.26610985 0.74553818
2.5774066 0.30234972 0.73521596
2.563374 0.33874446 0.74075347
2.5635386 0.36163971 0.74168801
2.6338007 0.39511022 0.73767203
2.6339712 0.41875786 0.73871869
2.6342235 0.45436862 0.74040747
2.6345644 0.50210333 0.74286187
2.579092 0.5503034 0.74296993
2.6348214 0.53810942 0.744856
2.5651684 0.58268297 0.74110824
2.5654221 0.6182819 0.74345654
2.6357441 0.65970999 0.73971629
2.636009 0.69671786 0.74230379
2.6363642 0.74645853 0.74597216
2.6366892 0.78409624 0.73589599
2.5670056 0.82498538 0.73407823
2.6217868 0.80472589 0.746647
2.5672722 0.86242735 0.73732281
2.6376548 0.91185832 0.73346376
2.6378393 0.93786788 0.73577124
2.6381207 0.97721809 0.73937631
2.6384044 1.0169178 0.74312741
2.5687981 1.0684298 0.74427646
2.6251597 1.0515871 0.74322748
2.5690393 1.0950229 0.73395002
2.5692308 1.1217973 0.73678362
2.6396236 1.1801678 0.7462945
2.6398778 1.2081363 0.73572439
2.6400785 1.2363096 0.73877013
2.640281 1.2647192 0.74189824
2.5713787 1.3158656 0.74553901
2.6246078 1.314224 0.74384999
2.6404862 1.2933731 0.74511069
2.5709238 1.3441776 0.73519671
2.5711312 1.3730959 0.73866713
2.550823 -1.4496424 0.78489494
2.5510314 -1.4203452 0.78110093
2.5901089 -1.4125259 0.7753588
2.6212568 -1.3851787 0.7791791
2.6215687 -1.3415495 0.7739538
2.6218195 -1.2985282 0.782709
2.5523348 -1.2225921 0.78386414
2.5526276 -1.1817815 0.77912867
2.5894525 -1.1577365 0.78564698
2.6228595 -1.1452131 0.77917206
2.6231499 -1.1045609 0.77489007
2.6233816 -1.0642761 0.7841416
2.6236672 -1.0244799 0.78014588
2.5542016 -0.94613183 0.78033757
2.5544734 -0.90822762 0.77669823
2.6185987 -0.89244056 0.77941942
2.6248136 -0.85624611 0.77784681
2.6250837 -0.81835139 0.7746824
2.6252964 -0.78070825 0.78466064
2.6254756 -0.75579542 0.78270549
2.5558615 -0.70355201 0.7763359
2.5561111 -0.66362309 0.78179574
2.5901804 -0.64830565 0.77769369
2.6263833 -0.62082845 0.78605491
2.6267278 -0.57251757 0.78303576
2.6269844 -0.53650886 0.78093517
2.6272407 -0.50070673 0.77899629
2.5575633 -0.45267963 0.78137898
2.5578089 -0.41815048 0.77971613
2.6268704 -0.38231647 0.77317625
2.6283634 -0.33563346 0.78442448
2.6286137 -0.30061641 0.78324497
2.6288638 -0.2657088 0.78221929
2.5593514 -0.2021777 0.77235651
2.6291111 -0.23087741 0.78131521
2.5594575 -0.17964263 0.78420484
2.5596178 -0.15713674 0.78380215
2.6297708 -0.13833405 0.77959162
2.6300187 -0.10372014 0.77920139
2.6303487 -0.057608716 0.7788806
2.6305952 -0.023042256 0.77878922
2.6308422 0.011522568 0.7788474
2.5611401 0.056093648 0.78298974
2.5614614 0.10101714 0.7835089
2.6317484 0.13843809 0.78017789
2.6319962 0.17315739 0.78086591
2.6323273 0.21955153 0.7819854
2.6326594 0.26609319 0.7833488
2.5736623 0.30571553 0.77971399
2.5632122 0.33872309 0.77782327
2.563375 0.36161667 0.778804
2.6336355 0.39508545 0.77566183
2.6338048 0.41873142 0.77676213
2.6340582 0.45434016 0.77853811
2.6343994 0.50207186 0.78111899
2.5789251 0.55026776 0.78064865
2.6346555 0.53807551 0.78321552
2.565007 0.58264637 0.77869397
2.5652616 0.61824322 0.78116167
2.6355796 0.65966886 0.77834666
2.6358438 0.69667423 0.78106904
2.636199 0.7464118 0.78492916
2.6365223 0.78404659 0.77494216
2.5667903 0.82491624 0.78527653
2.621619 0.80467439 0.78563809
2.5671122 0.86237359 0.77582818
2.637434 0.91178203 0.78620011
2.6376743 0.93780917 0.77538508
2.6379564 0.97715729 0.77918458
2.638238 1.0168538 0.78313702
2.5686359 1.0683625 0.78376752
2.6249948 1.0515211 0.78324258
2.5688272 1.0949323 0.78672212
2.5690711 1.1217276 0.7764523
2.6395149 1.1801193 0.77348566
2.6398134 1.2221467 0.77822232
2.6401181 1.2646413 0.78313231
2.5712171 1.3157829 0.78634667
2.6244426 1.3141413 0.78519154
2.640322 1.2932928 0.78652298
2.5707641 1.3440942 0.77605802
2.5709703 1.3730099 0.77972096
2.5507147 -1.4495809 0.81261438
2.5508709 -1.4202559 0.82254601
2.5899503 -1.4124395 0.81710511
2.6210938 -1.3850927 0.82113039
2.6214042 -1.3414655 0.81562322
2.6216564 -1.2984475 0.82423991
2.5521755 -1.2225158 0.82423311
2.5524664 -1.1817069 0.81925321
2.5892925 -1.157665 0.82610828
2.6226957 -1.1451416 0.81986284
2.6229854 -1.1044917 0.81535709
2.6232181 -1.0642097 0.82452488
2.6235015 -1.0244153 0.82032269
2.5540409 -0.94607222 0.81938833
2.554311 -0.90816987 0.81556642
2.6184359 -0.89238501 0.81894863
2.6246483 -0.85619223 0.81729579
2.6249115 -0.81409341 0.82238823
2.6251326 -0.7806595 0.82392824
2.625309 -0.75574744 0.82187438
2.5556922 -0.69949484 0.82265902
2.5559492 -0.66358113 0.81985533
2.5900211 -0.64826584 0.81604153
2.6262167 -0.62078899 0.82481337
2.6265612 -0.57248122 0.82164532
2.6268175 -0.53647476 0.81944108
2.6270735 -0.5006749 0.81740665
2.557399 -0.45265061 0.81887752
2.5576468 -0.41812396 0.81713551
2.6266539 -0.382285 0.82409883
2.6281972 -0.33561227 0.82261223
2.6284482 -0.30059752 0.82137549
2.6286972 -0.26569197 0.82029963
2.559134 -0.20216054 0.82186759
2.6289444 -0.23086277 0.81935138
2.5592935 -0.17963113 0.82138193
2.5594556 -0.15712678 0.82096076
2.6296043 -0.1383253 0.81754398
2.6298521 -0.10371356 0.81713462
2.6301818 -0.057605065 0.81679815
2.6304278 -0.02304079 0.81670225
2.6306748 0.011521835 0.81676322
2.5609775 0.056090083 0.82010972
2.5612974 0.10101067 0.82065308
2.6315813 0.13842931 0.81815863
2.6318288 0.17314637 0.81888008
2.6321607 0.21953765 0.82005429
2.6324921 0.26607627 0.82148385
2.5699215 0.30908093 0.82449609
2.56305 0.33870167 0.81515187
2.5632124 0.36159369 0.81617957
2.6334136 0.39505213 0.82674646
2.6336365 0.41870466 0.81506199
2.6338916 0.45431137 0.81692612
2.634232 0.50203991 0.81963402
2.5787563 0.55023181 0.81865072
2.6344905 0.53804183 0.82183474
2.5648446 0.58260947 0.81660271
2.5650997 0.61820424 0.81919062
2.6354129 0.65962714 0.81729758
2.6356776 0.6966303 0.8201564
2.6360321 0.74636453 0.82420933
2.6363566 0.7839973 0.81424385
2.5666285 0.82486415 0.8239969
2.6214499 0.80462253 0.82495284
2.5669498 0.86231905 0.8146531
2.6372674 0.91172445 0.82607251
2.6375108 0.93775105 0.81531775
2.6377902 0.97709572 0.81931198
2.6380734 1.0167904 0.82346845
2.5684757 1.0682958 0.8235172
2.6248276 1.0514541 0.82357848
2.5686629 1.0948622 0.82662034
2.5689096 1.1216571 0.81643921
2.6393495 1.1800452 0.8145268
2.6396499 1.2220709 0.81951529
2.6398976 1.2645355 0.83858079
2.6400092 1.264589 0.81079042
2.5710557 1.3157003 0.82741183
2.624332 1.314086 0.81292164
2.640213 1.2932394 0.81430078
2.5706038 1.3440104 0.81723595
2.5708108 1.3729246 0.82109344
2.5505552 -1.4494903 0.85446393
2.5507107 -1.4201665 0.86426198
2.5897894 -1.4123518 0.85918629
2.6209278 -1.3850049 0.86341769
2.6212392 -1.341381 0.85762727
2.6214912 -1.2983656 0.86604154
2.5520141 -1.2224385 0.86487418
2.5523052 -1.1816323 0.85964882
2.5891314 -1.1575929 0.86684269
2.62253 -1.1450694 0.86089146
2.6228201 -1.1044221 0.8561604
2.6230521 -1.0641425 0.86518043
2.6233363 -1.0243506 0.86077124
2.5538783 -0.94601202 0.85871148
2.5541484 -0.90811211 0.85470611
2.6182714 -0.89232898 0.8588174
2.6244817 -0.85613787 0.85708344
2.6247044 -0.82243735 0.85838836
2.6249642 -0.78060943 0.86346871
2.6251423 -0.75569946 0.86131686
2.5555282 -0.69944996 0.86112362
2.5557852 -0.66353852 0.85818881
2.5898604 -0.64822561 0.85472965
2.6260493 -0.62074947 0.86391592
2.6263947 -0.57244492 0.86059785
2.6266522 -0.53644109 0.85828972
2.6269078 -0.50064325 0.85615861
2.5572357 -0.45262173 0.85672021
2.5574825 -0.41809708 0.85489726
2.6264901 -0.38226113 0.86263222
2.6280289 -0.33559075 0.86107463
2.6282804 -0.30057833 0.85978031
2.6285286 -0.26567489 0.85865378
2.55897 -0.20214757 0.85934347
2.6287766 -0.23084806 0.8576616
2.5591283 -0.17961952 0.85883534
2.5592899 -0.15711661 0.8583948
2.6294372 -0.13831651 0.85576993
2.6296842 -0.10370694 0.8553412
2.6300139 -0.057601392 0.85498899
2.6302595 -0.023039317 0.85488838
2.6305065 0.011521098 0.85495228
2.5608127 0.056086473 0.85750544
2.5611334 0.1010042 0.85807365
2.6314132 0.13842045 0.85641295
2.6316602 0.17313531 0.85716808
2.6319909 0.21952349 0.85839677
2.6323237 0.26605925 0.85989362
2.5768409 0.30228341 0.86011428
2.5628862 0.33867997 0.85282224
2.5630474 0.36157042 0.85389709
2.6332452 0.39502686 0.8654024
2.6334691 0.41867802 0.85370237
2.6337237 0.45428246 0.85565484
2.6340647 0.50200808 0.8584913
2.5785863 0.55019546 0.85692632
2.6343224 0.5380075 0.86079597
2.564616 0.57862043 0.86303097
2.5649357 0.61816472 0.85749316
2.6352453 0.65958518 0.8565203
2.6355095 0.69658589 0.8595162
2.635865 0.74631715 0.86376393
2.6361895 0.78394771 0.85388315
2.5664651 0.82481176 0.86306089
2.62128 0.80457032 0.86454189
2.5667872 0.86226445 0.85374922
2.6371014 0.91166705 0.86628795
2.637341 0.93769073 0.85551828
2.6376233 0.97703391 0.85971045
2.6379066 1.016726 0.86407191
2.5683117 1.0682276 0.86360747
2.624661 1.0513873 0.86418712
2.5685563 1.0948169 0.85340136
2.5687466 1.121586 0.85669583
2.6391835 1.179971 0.85583603
2.6394839 1.2219942 0.86107767
2.6397865 1.2644823 0.86650974
2.5709474 1.3156449 0.85496879
2.6294401 1.3070449 0.85994434
2.6401029 1.2931854 0.8422119
2.5704412 1.3439254 0.85868227
2.570647 1.3728373 0.86273503
2.5503941 -1.4493988 0.89659566
2.5506022 -1.4201062 0.89226162
2.5896277 -1.4122636 0.9015516
2.6207628 -1.3849177 0.9059912
2.6210728 -1.3412958 0.8999148
2.6213806 -1.2983109 0.89409918
2.5518508 -1.2223604 0.9058758
2.5521424 -1.1815569 0.90040278
2.5890231 -1.1575445 0.89418995
2.622364 -1.1449968 0.9022066
2.6226528 -1.1043516 0.89724803
2.6228848 -1.0640745 0.90619659
2.6231692 -1.0242853 0.90157843
2.5537143 -0.94595122 0.89839458
2.5539851 -0.90805399 0.89420438
2.6181059 -0.89227253 0.89897346
2.6243141 -0.85608321 0.89715791
2.6245766 -0.81398964 0.90203542
2.6247957 -0.7805593 0.90337169
2.6249747 -0.75565124 0.90112066
2.5553665 -0.69940567 0.89995271
2.5556221 -0.66349614 0.89688516
2.5896437 -0.64817137 0.90679765
2.6258812 -0.62070978 0.90330935
2.626225 -0.57240796 0.89983958
2.6264825 -0.53640634 0.89742595
2.6267385 -0.50061101 0.89519787
2.5570748 -0.45259321 0.89485407
2.557266 -0.4180617 0.9057346
2.6263247 -0.38223708 0.90152967
2.627861 -0.33556935 0.89990115
2.6281114 -0.30055898 0.89854795
2.6283603 -0.26565793 0.89737105
2.5588064 -0.20213465 0.89718497
2.6286082 -0.23083326 0.89633393
2.5589681 -0.17960829 0.89665556
2.5591288 -0.15710671 0.89619529
2.6292706 -0.13830774 0.89435744
2.6295166 -0.10370032 0.89390916
2.6298459 -0.057597712 0.89354098
2.6300921 -0.023037851 0.89343607
2.6303391 0.011520365 0.89350289
2.5606499 0.056082904 0.89526618
2.5609708 0.10099778 0.89585948
2.6312451 0.13841161 0.89502919
2.6314926 0.17312427 0.89581847
2.6318235 0.21950953 0.89710265
2.6321554 0.26604229 0.8986668
2.5695875 0.30904081 0.90036374
2.5626664 0.338651 0.90353525
2.5628309 0.36153987 0.90467501
2.6330774 0.39500171 0.90442407
2.6332457 0.41864252 0.90570676
2.6335545 0.45425323 0.8946712
2.6338954 0.50197577 0.89763701
2.5784156 0.5501591 0.8955636
2.6341515 0.53797257 0.90004635
2.5645275 0.58647448 0.897928
2.5647712 0.61812508 0.89615786
2.635077 0.65954304 0.89610255
2.6353402 0.69654113 0.89923656
2.6356955 0.74626923 0.9036805
2.6360199 0.78389716 0.89380741
2.5663002 0.82475865 0.90241492
2.6211081 0.80451751 0.90449321
2.5666218 0.86220884 0.89320278
2.6369317 0.91160828 0.90679222
2.6371751 0.93763173 0.89607728
2.6374552 0.97697169 0.90046751
2.6377392 1.0166614 0.90503585
2.5681477 1.0681593 0.90398687
2.6200321 1.053979 0.89955616
2.568392 1.0947468 0.89385897
2.5685837 1.1215149 0.89731014
2.6390164 1.1798962 0.89750004
2.6393156 1.2219163 0.90299654
2.6396754 1.2644291 0.89458251
2.5707829 1.3155607 0.89659011
2.631938 1.3034968 0.89769423
2.5702798 1.3438408 0.9004854
2.5704856 1.372751 0.90473545
2.5502312 -1.4493061 0.93910116
2.5504413 -1.4200165 0.93456221
2.5894651 -1.4121748 0.94429302
2.6206508 -1.3848586 0.9345727
2.6209071 -1.3412111 0.94257826
2.6212125 -1.2982277 0.93648612
2.551686 -1.2222815 0.94718194
2.5519783 -1.1814809 0.94145966
2.5888598 -1.1574714 0.93551373
2.6221957 -1.1449233 0.94389975
2.6224856 -1.1042812 0.93871248
2.6227155 -1.0640059 0.9475174
2.6230001 -1.0242194 0.94268882
2.5535536 -0.9458918 0.93838346
2.5538242 -0.90799683 0.93400669
2.6179392 -0.89221579 0.93950903
2.6241446 -0.85602796 0.93761063
2.6243684 -0.82233208 0.93869942
2.6246319 -0.78051066 0.94358265
2.624809 -0.75560355 0.94123083
2.5552027 -0.69936085 0.93908817
2.5554583 -0.6634537 0.93588722
2.5894797 -0.6481303 0.94623142
2.6257136 -0.62067014 0.94308686
2.6260586 -0.57237172 0.93946475
2.6263154 -0.53637224 0.9369446
2.6265714 -0.50057924 0.93461859
2.5569072 -0.45256358 0.93336844
2.5570986 -0.41803432 0.94424617
2.6261597 -0.38221306 0.94073486
2.6276927 -0.33554783 0.93903422
2.6279416 -0.30053958 0.93762189
2.6281919 -0.26564091 0.93639421
2.5586393 -0.20212144 0.93533307
2.6284409 -0.23081857 0.93531245
2.5588009 -0.17959656 0.93478125
2.5589051 -0.15709299 0.94711018
2.6290431 -0.13829577 0.94631886
2.6292906 -0.10369141 0.94584507
2.6296189 -0.057592738 0.94545507
2.6298656 -0.023035865 0.94534421
2.6301124 0.011519372 0.94541484
2.5604262 0.056078009 0.94612831
2.5607467 0.10098895 0.94675517
2.6310768 0.13840275 0.9339506
2.6313229 0.17311311 0.9347738
2.6316552 0.21949548 0.93611431
2.6319864 0.26602519 0.93774611
2.5764959 0.30224299 0.9367618
2.5624995 0.33862892 0.94195354
2.5626633 0.36151624 0.94314164
2.6329069 0.39497611 0.94375336
2.6330764 0.41861561 0.94509214
2.6333873 0.45422444 0.9340688
2.6337283 0.50194395 0.93716514
2.5782433 0.55012226 0.93450558
2.6339846 0.53793848 0.93968064
2.564297 0.58248502 0.94522917
2.564606 0.61808521 0.93512791
2.6349101 0.65950125 0.93598896
2.6351748 0.69649744 0.93926311
2.6355286 0.74622196 0.94390428
2.6358523 0.78384745 0.93411011
2.5661373 0.82470626 0.94215339
2.620935 0.80446434 0.94475061
2.5664043 0.86213577 0.94631779
2.6368196 0.9115696 0.93399793
2.6370044 0.93757099 0.93693644
2.6372862 0.97690904 0.94152743
2.6375694 1.0165961 0.94630396
2.5679836 1.0680912 0.94474816
2.6288385 1.0486146 0.93827039
2.5682278 1.0946769 0.93461782
2.5684204 1.1214435 0.93822664
2.6388474 1.1798208 0.93946409
2.6391468 1.2218381 0.94521749
2.6395063 1.2643481 0.93699241
2.5706189 1.3154768 0.93851173
2.6317687 1.3034132 0.94025135
2.5701144 1.3437544 0.94258863
2.5703199 1.3726625 0.94703734
2.550066 -1.4492123 0.98192209
2.550276 -1.4199245 0.97717631
2.5893011 -1.4120854 0.98735207
2.6204824 -1.3847697 0.97776163
2.6207368 -1.3411239 0.98555762
2.6210451 -1.2981448 0.97918868
2.5515802 -1.2222308 0.97493374
2.5518169 -1.1814063 0.98291773
2.5886946 -1.1573976 0.97715402
2.6220303 -1.1448511 0.98591405
2.6223192 -1.1042112 0.98049545
2.6226087 -1.0639626 0.97527975
2.6228347 -1.0241548 0.98420119
2.5533867 -0.94582993 0.97877151
2.5536575 -0.90793753 0.97420645
2.6177711 -0.89215851 0.98036444
2.6239786 -0.85597372 0.97838444
2.6242485 -0.81809103 0.97440422
2.6244593 -0.78045928 0.9841941
2.6246378 -0.7555542 0.98174149
2.5550337 -0.69931459 0.97862601
2.5552905 -0.66341007 0.97529078
2.589314 -0.64808881 0.98607212
2.6255422 -0.62062961 0.98318684
2.6258883 -0.57233453 0.97941107
2.6261442 -0.53633726 0.97678351
2.6263993 -0.5005464 0.97435808
2.5566826 -0.45252383 0.98526269
2.5569293 -0.41800669 0.98316628
2.6259904 -0.38218844 0.9803437
2.6275201 -0.33552581 0.97857034
2.627769 -0.30051982 0.97709846
2.6280191 -0.26562345 0.97581899
2.5584698 -0.20210806 0.97388577
2.6282687 -0.23080346 0.97469193
2.5586317 -0.17958468 0.97331119
2.5587335 -0.15708245 0.98570323
2.62887 -0.13828667 0.98569435
2.6291175 -0.10368458 0.98520088
