# .PCD v0.7 - Point Cloud Data file format
VERSION 0.7
FIELDS x y z
SIZE 4 4 4
TYPE F F F
COUNT 1 1 1
WIDTH 141
HEIGHT 1
VIEWPOINT 0 0 0 1 0 0 0
POINTS 141
DATA ascii
2.9906375 0.052395992 -0.11380342
2.9935286 0.078680031 -0.1139353
2.9964323 0.10502727 -0.11407645
2.9993544 0.13144238 -0.11422715
3.0022886 0.15792964 -0.11438719
3.0052395 0.18449378 -0.1145568
3.0082071 0.21113938 -0.11473601
3.0111907 0.23787104 -0.11492487
3.0141916 0.26469356 -0.11512347
3.017211 0.29161179 -0.11533193
3.0202489 0.31863052 -0.11555031
3.0201168 0.34538993 -0.11565657
2.9967179 0.36933321 -0.11487998
2.9721024 0.39275706 -0.11406384
2.952796 0.41655245 -0.11345858
2.9900532 0.052385755 -0.08741466
2.9929428 0.078664638 -0.08751592
2.9958484 0.10500681 -0.087624416
2.9987671 0.13141665 -0.087740086
3.0017002 0.15789869 -0.087863006
3.0046489 0.18445753 -0.087993234
3.0076158 0.21109787 -0.088130891
3.0105989 0.23782429 -0.088275962
3.0135992 0.26464155 -0.088428512
3.0166173 0.29155442 -0.088588618
3.019655 0.31856784 -0.08875636
3.0227113 0.34568664 -0.088931784
3.0257859 0.37291571 -0.089114927
3.0288832 0.40026054 -0.089305982
3.0320015 0.427726 -0.089504957
3.0351408 0.45531732 -0.089711919
3.0383031 0.48303995 -0.08992701
3.0105002 0.50569397 -0.089231789
2.976747 0.52687371 -0.088364735
2.9676936 0.55212229 -0.088236161
2.9894693 0.052375525 -0.061049771
2.9923582 0.078649268 -0.061120488
2.9952614 0.10498624 -0.061196227
2.9981794 0.1313909 -0.061277006
3.0011108 0.1578677 -0.061362829
3.0040605 0.18442139 -0.061453812
3.0070255 0.21105644 -0.061549921
3.0100069 0.23777753 -0.061651215
3.0130069 0.26458952 -0.061757762
3.0160244 0.29149711 -0.061869577
3.0190609 0.31850517 -0.061986718
3.0221169 0.3456187 -0.062109236
3.0251939 0.37284273 -0.062237203
3.0282896 0.40018207 -0.062370613
3.0314078 0.42764226 -0.062509589
3.0345471 0.45522827 -0.062654145
3.037709 0.4829455 -0.062804364
3.0408936 0.51079929 -0.062960289
3.0441008 0.53879511 -0.063121989
3.0473335 0.56693888 -0.063289568
3.0463793 0.59441423 -0.063375458
2.9888854 0.052365299 -0.034704652
2.9917736 0.078633897 -0.034744848
2.9946761 0.10496572 -0.034787901
2.997592 0.13136515 -0.034833804
3.0005238 0.15783681 -0.034882601
3.0034716 0.18438524 -0.034934308
3.0064352 0.21101502 -0.034988932
3.0094187 0.23773107 -0.035046548
3.0124173 0.26453775 -0.035107106
3.0154338 0.29144001 -0.035170659
3.0184708 0.31844291 -0.035237264
3.0215256 0.34555104 -0.035306908
3.0246012 0.37276968 -0.035379641
3.0276959 0.40010363 -0.035455476
3.0308135 0.42755842 -0.035534479
3.0339508 0.4551388 -0.035616636
3.0371134 0.48285082 -0.035702046
3.0402973 0.51069915 -0.035790686
3.0435054 0.53868973 -0.035882622
3.0467377 0.56682801 -0.035977889
3.0499973 0.59512019 -0.036076553
3.0532799 0.62357116 -0.0361786
3.0565896 0.65218747 -0.036284115
3.0570242 0.68032926 -0.036358621
3.0121844 0.31777969 -0.0084876819
3.027102 0.40002516 -0.0085563883
3.0302186 0.4274745 -0.0085754525
3.0333555 0.45504951 -0.0085952803
3.0365179 0.48275611 -0.0086158924
3.0397017 0.51059908 -0.0086372858
3.0429113 0.53858453 -0.0086594783
3.0461423 0.56671727 -0.008682467
3.0494015 0.59500396 -0.0087062782
3.0526841 0.6234495 -0.008730907
3.0559962 0.65206087 -0.0087563796
3.0593338 0.68084323 -0.0087826941
3.0626998 0.70980316 -0.0088098673
3.0660946 0.73894703 -0.0088379132
3.0480657 0.7629115 -0.0088048689
3.0423181 0.53847957 0.0185517
3.0455503 0.56660712 0.018600961
3.0488102 0.59488857 0.018651981
3.0520933 0.62332886 0.018704752
3.0554054 0.6519348 0.018759325
3.058743 0.68071175 0.018815706
3.0621073 0.70966583 0.018873915
3.0655017 0.7388041 0.018933998
3.0689032 0.76812696 0.018995836
3.0723033 0.79763806 0.019059397
3.0756993 0.82734227 0.019124689
3.0790951 0.8572464 0.019191759
3.0631716 0.88179487 0.019139916
3.0414362 0.90445954 0.019052876
3.0282955 0.92949885 0.019020833
3.031075 0.95948178 0.019090347
3.0493052 0.99472052 0.019259302
3.0515006 0.62320781 0.046132661
3.0548131 0.65180844 0.046267278
3.0581512 0.68058008 0.046406347
3.0615182 0.70952934 0.046549965
3.0649083 0.73866111 0.046698097
3.0682983 0.76797557 0.046850447
3.0716879 0.79747832 0.047007062
3.0750802 0.82717574 0.047168043
3.0784667 0.85707146 0.047333326
3.0824733 0.88735127 0.047512617
3.0909925 0.91919655 0.047766201
3.105933 0.95332867 0.04812428
3.0609281 0.70939261 0.074222557
3.0643108 0.73851705 0.074458584
3.0676923 0.76782393 0.074701309
3.071074 0.79731894 0.074950852
3.0744581 0.82700843 0.075207353
3.0778408 0.85689718 0.075470813
3.082103 0.8872447 0.075762987
3.0908735 0.91916114 0.076173566
3.105794 0.95328605 0.076744117
3.0704608 0.79715967 0.10289512
3.0738342 0.82684058 0.10324691
3.0772128 0.85672235 0.10360848
3.0817814 0.88715208 0.10401996
3.0907538 0.91912556 0.10459054
3.1056507 0.95324206 0.10537316
3.0910125 0.83146149 0.13205166
3.0908902 0.83142853 0.16029356
