# .PCD v0.7 - Point Cloud Data file format
VERSION 0.7
FIELDS x y z
SIZE 4 4 4
TYPE F F F
COUNT 1 1 1
WIDTH 128
HEIGHT 1
VIEWPOINT 0 0 0 1 0 0 0
POINTS 128
DATA ascii
2.6303201 -0.13836294 0.65515113
2.6304851 -0.11527723 0.65491563
2.6306481 -0.092206255 0.65473002
2.6308131 -0.069146641 0.6545952
2.6309767 -0.04609473 0.65451032
2.6311436 -0.02304706 0.65447658
2.6313086 0 0.6544925
2.6314723 0.023049939 0.65455836
2.6302102 -0.13835718 0.67980909
2.6303771 -0.11527248 0.67956513
2.6305404 -0.092202477 0.67937261
2.6307054 -0.069143809 0.67923278
2.6308682 -0.046092834 0.67914456
2.6310337 -0.023046097 0.6791091
2.6311989 0 0.67912567
2.6313622 0.023048975 0.67919385
2.6301019 -0.13835147 0.70457786
2.6302669 -0.11526766 0.70432454
2.6304297 -0.092198603 0.70412493
2.6305969 -0.069140956 0.70398051
2.6307597 -0.046090931 0.70388907
2.6309252 -0.023045145 0.70385224
2.6310902 0 0.70386946
2.631254 0.023048026 0.70394027
2.6299913 -0.13834566 0.72946107
2.6301577 -0.11526287 0.72919917
2.6303213 -0.092194796 0.72899264
2.630486 -0.069138043 0.7288425
2.6306512 -0.046089027 0.72874844
2.6308165 -0.023044195 0.72871041
2.6309814 0 0.72872818
2.631145 0.023047073 0.72880143
2.6298823 -0.13833994 0.75446445
2.6300468 -0.11525802 0.75419307
2.6302123 -0.092190973 0.75397998
2.6303771 -0.069135182 0.75382471
2.630542 -0.046087116 0.75372738
2.6307051 -0.023043219 0.75368738
2.6308706 0 0.75370586
2.6310339 0.023046099 0.75378156
2.6297708 -0.13833405 0.77959162
2.6299376 -0.11525323 0.7793119
2.6301 -0.09218704 0.77909082
2.6302652 -0.069132239 0.77893054
2.6304324 -0.046085197 0.77883065
2.6305952 -0.023042256 0.77878922
2.6307607 0 0.7788083
2.630924 0.023045136 0.7788865
2.6296606 -0.13832827 0.80484867
2.6298251 -0.11524831 0.80455917
2.6299906 -0.092183203 0.80433184
2.6301551 -0.069129348 0.80416614
2.6303201 -0.046083227 0.80406231
2.6304836 -0.023041278 0.80401981
2.6306486 0 0.80403936
2.6308122 0.023044158 0.80412018
2.6297152 -0.11524348 0.82994145
2.6298773 -0.092179239 0.82970601
2.6300428 -0.069126397 0.82953531
2.6302094 -0.04608129 0.82942879
2.6303723 -0.023040304 0.82938468
2.6305377 0 0.82940507
2.6307011 0.023043184 0.82948834
2.6295483 -0.13832235 0.83023936
2.6294372 -0.13831651 0.85576993
2.629602 -0.11523852 0.85546219
2.6297665 -0.092175357 0.85522026
2.6299317 -0.069123477 0.85504425
2.6300962 -0.046079308 0.85493374
2.6302595 -0.023039317 0.85488838
2.6304247 0 0.8549093
2.6305883 0.023042196 0.85499525
2.6293259 -0.13831066 0.88144493
2.6294885 -0.11523355 0.88112724
2.6296549 -0.092171438 0.88087869
2.629818 -0.069120489 0.88069671
2.6299832 -0.046077326 0.88058311
2.6301477 -0.023038337 0.88053691
2.6303132 0 0.88055843
2.6304762 0.023041215 0.88064688
2.629215 -0.13830481 0.90727001
2.6293793 -0.11522876 0.90694362
2.6295438 -0.092167549 0.90668714
2.6297088 -0.069117621 0.90650052
2.6298738 -0.046075407 0.90638345
2.6300366 -0.023037363 0.90633529
2.6302021 0 0.90635753
2.6303654 0.023040244 0.9064486
2.6291006 -0.13829879 0.93324912
2.6292646 -0.11522374 0.9329133
2.6294317 -0.092163615 0.93265033
2.6295938 -0.069114596 0.93245745
2.6297591 -0.046073399 0.93233711
2.6299222 -0.023036361 0.93228757
2.6300871 0 0.93231034
2.6302509 0.02303924 0.9324041
2.6289854 -0.13829274 0.95938867
2.6291497 -0.11521871 0.95904356
2.6293163 -0.092159577 0.95877308
2.6294789 -0.069111571 0.95857483
2.6296439 -0.04607138 0.95845103
2.6298089 -0.02303537 0.95840091
2.6299739 0 0.95842427
2.6301374 0.023038248 0.95852071
2.62887 -0.13828667 0.98569435
2.6290345 -0.11521365 0.98533988
2.6292007 -0.092155516 0.98506182
2.6293635 -0.069108546 0.98485821
2.6295285 -0.046069361 0.98473114
2.6296933 -0.023034357 0.98467952
2.6298585 0 0.98470354
2.630022 0.023037236 0.98480266
2.6287539 -0.13828057 1.0121719
2.6289182 -0.11520856 1.0118077
2.6290848 -0.092151456 1.0115224
2.6292472 -0.069105484 1.0113132
2.6294119 -0.04606732 1.0111825
2.6295774 -0.023033341 1.0111297
2.6297424 0 1.0111544
2.6299057 0.023036217 1.0112561
2.5972178 -0.13662167 1.0264102
2.5983164 -0.11386748 1.0264108
2.599216 -0.09110453 1.0264115
2.5999157 -0.068334557 1.0264121
2.6004167 -0.045559321 1.026413
2.6007175 -0.022780547 1.0264136
2.6008189 0 1.0264142
2.6007209 0.022780579 1.0264149
