# .PCD v0.7 - Point Cloud Data file format
VERSION 0.7
FIELDS x y z
SIZE 4 4 4
TYPE F F F
COUNT 1 1 1
WIDTH 1574
HEIGHT 1
VIEWPOINT 0 0 0 1 0 0 0
POINTS 1574
DATA ascii
11.125421 20.687027 8.5599041
10.943796 20.78368 8.5599041
10.761333 20.87874 8.5599041
10.578043 20.972197 8.5599041
10.393942 21.064045 8.5599041
10.209044 21.154278 8.5599041
10.023361 21.242887 8.5599041
9.8369102 21.329866 8.5599041
9.6497049 21.415211 8.5599041
9.4617586 21.498911 8.5599041
9.2730875 21.580961 8.5599041
9.083704 21.661356 8.5599041
8.9887505 21.700932 8.5599041
9.0541992 -21.590998 8.7664289
9.2429676 -21.510864 8.7664289
9.4310265 -21.429079 8.7664289
9.6183615 -21.345652 8.7664289
9.8049593 -21.260586 8.7664289
9.9908047 -21.173889 8.7664289
10.175883 -21.085567 8.7664289
10.360181 -20.995626 8.7664289
10.543684 -20.904078 8.7664289
10.726378 -20.810923 8.7664289
10.90825 -20.716173 8.7664289
11.089284 -20.619833 8.7664289
11.269468 -20.52191 8.7664289
11.448787 -20.422415 8.7664289
11.627228 -20.32135 8.7664289
11.804776 -20.218729 8.7664289
11.98142 -20.114555 8.7664289
12.157143 -20.008839 8.7664289
12.331934 -19.901587 8.7664289
12.505778 -19.792807 8.7664289
12.678664 -19.68251 8.7664289
12.850576 -19.570702 8.7664289
13.021503 -19.457394 8.7664289
13.191431 -19.342592 8.7664289
13.360347 -19.226307 8.7664289
13.528237 -19.108545 8.7664289
13.69509 -18.989319 8.7664289
13.860892 -18.868635 8.7664289
14.025631 -18.746504 8.7664289
14.189293 -18.622934 8.7664289
14.351867 -18.497936 8.7664289
14.51334 -18.371519 8.7664289
14.673699 -18.24369 8.7664289
14.832932 -18.114464 8.7664289
14.991028 -17.983849 8.7664289
15.147974 -17.851852 8.7664289
15.303757 -17.718487 8.7664289
15.458366 -17.583761 8.7664289
15.611789 -17.447687 8.7664289
15.764014 -17.310274 8.7664289
15.91503 -17.171532 8.7664289
16.064825 -17.031475 8.7664289
16.213387 -16.89011 8.7664289
16.360706 -16.747448 8.7664289
16.506769 -16.603502 8.7664289
16.651566 -16.458282 8.7664289
16.795086 -16.3118 8.7664289
16.937315 -16.164066 8.7664289
17.078247 -16.015093 8.7664289
17.217869 -15.86489 8.7664289
17.356169 -15.71347 8.7664289
17.493137 -15.560844 8.7664289
17.628763 -15.407025 8.7664289
17.763037 -15.252025 8.7664289
17.895948 -15.095853 8.7664289
18.027485 -14.938523 8.7664289
18.15764 -14.780047 8.7664289
18.286402 -14.620438 8.7664289
18.413761 -14.459706 8.7664289
18.539707 -14.297866 8.7664289
18.66423 -14.134928 8.7664289
18.787323 -13.970906 8.7664289
18.908974 -13.805812 8.7664289
19.029173 -13.639659 8.7664289
19.147913 -13.472459 8.7664289
19.265184 -13.304226 8.7664289
19.380976 -13.134972 8.7664289
19.495281 -12.96471 8.7664289
19.608091 -12.793453 8.7664289
19.719397 -12.621216 8.7664289
19.829191 -12.448009 8.7664289
19.937462 -12.273848 8.7664289
20.044203 -12.098744 8.7664289
20.149406 -11.922713 8.7664289
20.253065 -11.745768 8.7664289
20.355169 -11.567921 8.7664289
20.455711 -11.389186 8.7664289
20.554686 -11.209578 8.7664289
2.5517609 -1.3627512 1.0831757
2.5521681 -1.3343714 1.0783458
2.5525732 -1.3062421 1.0736412
2.5529745 -1.278355 1.0690591
2.5533714 -1.2507023 1.064597
2.5537639 -1.2232767 1.0602525
2.5541553 -1.1960731 1.0560248
2.5545447 -1.1690838 1.0519115
2.5549273 -1.1423004 1.0479087
2.5553098 -1.1157191 1.0440171
2.5556898 -1.0893327 1.040234
2.5560656 -1.0631341 1.0365567
2.5564396 -1.0371186 1.0329849
2.5568111 -1.0112796 1.0295161
2.5571804 -0.98561186 1.0261493
2.5575447 -0.9601084 1.0228814
2.5713437 -0.93967545 1.025069
2.5844293 -0.91887826 1.0270375
2.59238 -0.8962065 1.0270381
2.600132 -0.87346596 1.0270387
2.6076846 -0.85065848 1.0270394
2.6150372 -0.82778567 1.02704
2.622189 -0.80484933 1.0270407
2.6291394 -0.78185111 1.0270412
2.5607488 -0.73716247 0.99776459
2.5610969 -0.71303129 0.9954285
2.5614414 -0.68901044 0.99317861
2.6314168 -0.68317413 1.0179516
2.6317685 -0.65871489 1.0158166
2.6321192 -0.63435638 1.0137684
2.632467 -0.61009359 1.0118053
2.6328135 -0.58592272 1.009927
2.6331611 -0.56184018 1.0081339
2.6335061 -0.53784078 1.0064237
2.5641525 -0.50032139 0.97820711
2.5644844 -0.47710755 0.97670192
2.5648181 -0.45396376 0.97527713
2.5664282 -0.43110016 0.97441614
2.6352139 -0.41895542 0.99910086
2.6355529 -0.39537305 0.99787807
2.6358905 -0.37184644 0.9967345
2.6362281 -0.34837198 0.99567002
2.636565 -0.32494584 0.9946841
2.6368995 -0.30156404 0.99377567
2.6372361 -0.27822337 0.99294591
2.5677736 -0.24817389 0.96593708
2.5681009 -0.22551978 0.96528012
2.5684257 -0.20289452 0.96469718
2.5687499 -0.18029486 0.96418875
2.6389058 -0.16200429 0.98995143
2.6392369 -0.138832 0.98958147
2.6395702 -0.11567537 0.98928851
2.6399035 -0.09253066 0.98907173
2.6402352 -0.06939429 0.9889304
2.6405685 -0.046262782 0.98886549
2.6409006 -0.023132525 0.98887604
2.641232 0 0.98896223
2.5716634 0.022526052 0.96295035
2.5719869 0.045061231 0.96318233
2.5723116 0.067609027 0.96348882
2.6425624 0.09262386 0.99006796
2.6428964 0.11582114 0.9905352
2.643229 0.139042 0.99107832
2.6435628 0.16229019 0.99169838
2.6438985 0.18556936 0.99239606
2.6442335 0.20888302 0.9931705
2.6445708 0.23223503 0.99402308
2.6449072 0.25562882 0.99495298
2.5752437 0.27168331 0.96960515
2.575573 0.29455051 0.97066331
2.575901 0.31746924 0.97179776
2.6462584 0.34969747 0.99945837
2.6465979 0.37335694 1.0007834
2.6469388 0.39708111 1.002189
2.6472807 0.42087385 1.0036758
2.647624 0.44473916 1.0052444
2.6479664 0.46868071 1.0068945
2.6483128 0.49270335 1.0086285
2.6256161 0.51231426 1.001655
2.578907 0.52669007 0.98555809
2.5792468 0.55033636 0.98749226
2.5795879 0.57407761 0.98951018
2.6500559 0.6141699 1.0185657
2.6504099 0.63876456 1.0208131
2.6507661 0.66346997 1.0231494
2.6511221 0.68829006 1.0255744
2.6488802 0.71253085 1.0270823
2.642539 0.73570544 1.0270828
2.6359954 0.75882375 1.0270835
2.5835958 0.76830739 1.0092502
2.5827315 0.79273832 1.0115863
2.5830877 0.81767207 1.014492
2.6078031 0.8506971 1.027086
2.6002533 0.87350678 1.0270867
2.592504 0.89624935 1.0270873
2.5859876 0.91943228 1.0276568
2.584913 0.94463426 1.0304785
2.5852842 0.97052193 1.0339757
2.5856588 0.99658823 1.037577
2.5860362 1.0228388 1.0412837
2.5864162 1.0492797 1.0450975
2.586798 1.0759165 1.0490197
2.5871849 1.1027571 1.0530534
2.5875731 1.1298062 1.0571988
2.5879633 1.1570706 1.0614585
2.5883594 1.184559 1.0658357
2.5887592 1.2122775 1.0703319
2.5891585 1.240231 1.0749474
2.5895646 1.2684305 1.0796874
2.5899742 1.2968819 1.0845529
20.842113 10.665648 8.7664289
20.747892 10.847795 8.7664289
20.652081 11.029109 8.7664289
20.554686 11.209578 8.7664289
20.455711 11.389186 8.7664289
20.355169 11.567921 8.7664289
20.253065 11.745768 8.7664289
20.149406 11.922713 8.7664289
20.044203 12.098744 8.7664289
19.937462 12.273848 8.7664289
19.829191 12.448009 8.7664289
19.719397 12.621216 8.7664289
19.608091 12.793453 8.7664289
19.495281 12.96471 8.7664289
19.380976 13.134972 8.7664289
19.265184 13.304226 8.7664289
19.147913 13.472459 8.7664289
19.029173 13.639659 8.7664289
18.908974 13.805812 8.7664289
18.787323 13.970906 8.7664289
18.66423 14.134928 8.7664289
18.539707 14.297866 8.7664289
18.413761 14.459706 8.7664289
18.286402 14.620438 8.7664289
18.15764 14.780047 8.7664289
18.027485 14.938523 8.7664289
17.895948 15.095853 8.7664289
17.763037 15.252025 8.7664289
17.628763 15.407025 8.7664289
17.493137 15.560844 8.7664289
17.356169 15.71347 8.7664289
17.217869 15.86489 8.7664289
17.078247 16.015093 8.7664289
16.937315 16.164066 8.7664289
16.795086 16.3118 8.7664289
16.651566 16.458282 8.7664289
16.506769 16.603502 8.7664289
16.360706 16.747448 8.7664289
16.213387 16.89011 8.7664289
16.064825 17.031475 8.7664289
15.91503 17.171532 8.7664289
15.764014 17.310274 8.7664289
15.611789 17.447687 8.7664289
15.458366 17.583761 8.7664289
15.303757 17.718487 8.7664289
15.147974 17.851852 8.7664289
14.991028 17.983849 8.7664289
14.832932 18.114464 8.7664289
14.673699 18.24369 8.7664289
14.51334 18.371519 8.7664289
14.351867 18.497936 8.7664289
14.189293 18.622934 8.7664289
14.025631 18.746504 8.7664289
13.860892 18.868635 8.7664289
13.69509 18.989319 8.7664289
13.528237 19.108545 8.7664289
13.360347 19.226307 8.7664289
13.191431 19.342592 8.7664289
13.021503 19.457394 8.7664289
12.850576 19.570702 8.7664289
12.678664 19.68251 8.7664289
12.505778 19.792807 8.7664289
12.331934 19.901587 8.7664289
12.157143 20.008839 8.7664289
11.98142 20.114555 8.7664289
11.804776 20.218729 8.7664289
11.627228 20.32135 8.7664289
11.448787 20.422415 8.7664289
11.269468 20.52191 8.7664289
11.089284 20.619833 8.7664289
10.90825 20.716173 8.7664289
10.726378 20.810923 8.7664289
10.543684 20.904078 8.7664289
10.360181 20.995626 8.7664289
10.175883 21.085567 8.7664289
9.9908047 21.173889 8.7664289
9.8049593 21.260586 8.7664289
9.6183615 21.345652 8.7664289
9.4310265 21.429079 8.7664289
9.2429676 21.510864 8.7664289
9.0541992 21.590998 8.7664289
8.9595537 21.630444 8.7664289
9.0239916 -21.518965 8.9722748
9.2121305 -21.439098 8.9722748
9.3995619 -21.357588 8.9722748
9.5862722 -21.274437 8.9722748
9.7722473 -21.189655 8.9722748
9.9574728 -21.103247 8.9722748
10.141933 -21.015221 8.9722748
10.325617 -20.925581 8.9722748
10.508508 -20.834335 8.9722748
10.690593 -20.741493 8.9722748
10.871858 -20.647058 8.9722748
11.052288 -20.551039 8.9722748
11.231871 -20.453444 8.9722748
11.410591 -20.35428 8.9722748
11.588436 -20.253553 8.9722748
11.765392 -20.151274 8.9722748
11.941446 -20.047447 8.9722748
12.116584 -19.942083 8.9722748
12.290792 -19.83519 8.9722748
12.464056 -19.726774 8.9722748
12.636365 -19.616844 8.9722748
12.807704 -19.505409 8.9722748
12.978061 -19.392479 8.9722748
13.147421 -19.278061 8.9722748
13.315773 -19.162163 8.9722748
13.483104 -19.044794 8.9722748
13.6494 -18.925966 8.9722748
13.814649 -18.805685 8.9722748
13.978838 -18.68396 8.9722748
14.141954 -18.560802 8.9722748
14.303986 -18.436222 8.9722748
14.46492 -18.310226 8.9722748
14.624744 -18.182825 8.9722748
14.783446 -18.054029 8.9722748
14.941014 -17.923849 8.9722748
15.097436 -17.792294 8.9722748
15.2527 -17.659372 8.9722748
15.406793 -17.525097 8.9722748
15.559704 -17.389477 8.9722748
15.711422 -17.252522 8.9722748
15.861934 -17.114244 8.9722748
16.011229 -16.974653 8.9722748
16.159296 -16.833759 8.9722748
16.306122 -16.691574 8.9722748
16.451698 -16.548109 8.9722748
16.596012 -16.403374 8.9722748
16.739052 -16.25738 8.9722748
16.880808 -16.11014 8.9722748
17.021271 -15.961662 8.9722748
17.160425 -15.811961 8.9722748
17.298264 -15.661046 8.9722748
17.434774 -15.50893 8.9722748
17.569948 -15.355624 8.9722748
17.703775 -15.201139 8.9722748
17.836243 -15.045489 8.9722748
17.967342 -14.888684 8.9722748
18.097063 -14.730738 8.9722748
18.225395 -14.57166 8.9722748
18.352329 -14.411466 8.9722748
18.477854 -14.250164 8.9722748
18.601963 -14.08777 8.9722748
18.724644 -13.924295 8.9722748
18.845888 -13.759752 8.9722748
18.965687 -13.594153 8.9722748
19.08403 -13.427511 8.9722748
19.200911 -13.259839 8.9722748
19.316317 -13.09115 8.9722748
19.430241 -12.921456 8.9722748
19.542675 -12.750772 8.9722748
19.653608 -12.579108 8.9722748
19.763035 -12.40648 8.9722748
19.870945 -12.2329 8.9722748
19.977331 -12.05838 8.9722748
20.082184 -11.882936 8.9722748
20.185495 -11.706581 8.9722748
20.28726 -11.529327 8.9722748
20.387466 -11.351189 8.9722748
20.486109 -11.172179 8.9722748
20.583181 -10.992313 8.9722748
20.678673 -10.811604 8.9722748
20.772579 -10.630065 8.9722748
20.864891 -10.44771 8.9722748
20.955601 -10.264554 8.9722748
21.044704 -10.080609 8.9722748
2.5540428 -1.1960204 1.0843916
2.5544293 -1.169031 1.0801666
2.5548153 -1.1422503 1.0760578
2.555197 -1.1156698 1.0720613
2.5555768 -1.0892844 1.0681764
2.5559518 -1.0630869 1.0644002
2.5563273 -1.037073 1.060733
2.5566964 -1.0112343 1.05717
2.5570655 -0.98556751 1.0537125
2.5574324 -0.96006626 1.0503581
2.5577979 -0.93472528 1.0471053
2.5581577 -0.90953749 1.043951
2.5585177 -0.88449997 1.0408963
2.558876 -0.8596068 1.037939
2.559233 -0.83485293 1.0350778
2.559586 -0.8102327 1.0323106
2.5599356 -0.78574139 1.0296363
2.5614772 -0.76172972 1.0275333
2.5606351 -0.73712981 1.0245661
2.5609829 -0.71299952 1.0221671
2.5613277 -0.6889798 1.0198568
2.5845516 -0.67100692 1.0267243
2.5903306 -0.64834332 1.0267247
2.595912 -0.6256302 1.0267254
2.6012936 -0.60286891 1.0267259
2.6064763 -0.58006155 1.0267267
2.6114585 -0.55720943 1.0267272
2.6162405 -0.53431463 1.0267278
2.5640373 -0.50029898 1.0044827
2.5643718 -0.4770866 1.0029382
2.5647047 -0.45394367 1.0014747
2.5663147 -0.43108112 1.0005906
2.635097 -0.41893685 1.0259383
2.6354353 -0.39535543 1.0246824
2.6357734 -0.3718299 1.0235082
2.6361108 -0.34835649 1.0224152
2.6364472 -0.32493129 1.0214025
2.6367836 -0.30155078 1.0204705
2.6371181 -0.27821094 1.0196177
2.567661 -0.24816303 0.99188423
2.567986 -0.22550967 0.99120861
2.56831 -0.20288539 0.99060971
2.5686343 -0.18028674 0.99008775
2.6387873 -0.16199701 1.0165424
2.6391206 -0.13882588 1.0161633
2.6394534 -0.11567024 1.0158625
2.6397865 -0.092526563 1.0156398
2.6401184 -0.069391221 1.0154947
2.64045 -0.046260707 1.0154275
2.6407835 -0.023131499 1.0154388
2.6411157 0 1.0155276
2.5715494 0.022525053 0.98881674
2.5718737 0.045059249 0.98905534
2.5721962 0.067605995 0.98936909
2.6424458 0.092619769 1.016663
2.6427796 0.11581602 1.0171427
2.6431129 0.1390359 1.0177006
2.6434462 0.16228302 1.0183372
2.6437805 0.18556108 1.0190531
2.6441154 0.2088737 1.0198483
2.6444511 0.23222451 1.0207231
2.6447871 0.2556172 1.0216779
2.5751288 0.27167118 0.99565005
2.5754564 0.29453722 0.99673599
2.5757868 0.31745517 0.99790174
2.6461391 0.34968171 1.0263046
2.6441288 0.37300861 1.0267527
2.6407619 0.39615446 1.0267534
2.6371925 0.41926998 1.0267541
2.6334207 0.44235334 1.0267547
2.6294463 0.46540272 1.0267553
2.6252711 0.48841655 1.026756
2.6208935 0.51139283 1.0267566
2.5787928 0.5266667 1.0120318
2.5791326 0.55031204 1.0140179
2.5794744 0.57405233 1.0160903
2.6013777 0.60288841 1.026759
2.5959988 0.62565112 1.0267597
2.5904205 0.6483658 1.0267602
2.5846441 0.67103094 1.0267611
2.5819228 0.69451976 1.0280573
2.5815518 0.71872604 1.0303767
2.5819056 0.74325293 1.0330769
2.5822592 0.76790982 1.03587
2.5826159 0.79270285 1.0387586
2.582973 0.81763583 1.0417429
2.5833361 0.84271568 1.0448263
2.583698 0.86794531 1.0480074
2.5840623 0.89333105 1.0512888
2.584424 0.91887635 1.05467
2.5847981 0.9445923 1.0581586
2.58517 0.97047901 1.0617501
2.5855441 0.99654406 1.065448
2.5859208 1.0227932 1.069254
2.5863011 1.049233 1.0731703
2.5866849 1.0758696 1.0771986
2.5870683 1.1027074 1.0813392
2.5877166 1.1298689 1.0857053
21.302299 9.5241947 8.9722748
21.218061 9.7104158 8.9722748
21.132193 9.8958921 8.9722748
21.044704 10.080609 8.9722748
20.955601 10.264554 8.9722748
20.864891 10.44771 8.9722748
20.772579 10.630065 8.9722748
20.678673 10.811604 8.9722748
20.583181 10.992313 8.9722748
20.486109 11.172179 8.9722748
20.387466 11.351189 8.9722748
20.28726 11.529327 8.9722748
20.185495 11.706581 8.9722748
20.082184 11.882936 8.9722748
19.977331 12.05838 8.9722748
19.870945 12.2329 8.9722748
19.763035 12.40648 8.9722748
19.653608 12.579108 8.9722748
19.542675 12.750772 8.9722748
19.430241 12.921456 8.9722748
19.316317 13.09115 8.9722748
19.200911 13.259839 8.9722748
19.08403 13.427511 8.9722748
18.965687 13.594153 8.9722748
18.845888 13.759752 8.9722748
18.724644 13.924295 8.9722748
18.601963 14.08777 8.9722748
18.477854 14.250164 8.9722748
18.352329 14.411466 8.9722748
18.225395 14.57166 8.9722748
18.097063 14.730738 8.9722748
17.967342 14.888684 8.9722748
17.836243 15.045489 8.9722748
17.703775 15.201139 8.9722748
17.569948 15.355624 8.9722748
17.434774 15.50893 8.9722748
17.298264 15.661046 8.9722748
17.160425 15.811961 8.9722748
17.021271 15.961662 8.9722748
16.880808 16.11014 8.9722748
16.739052 16.25738 8.9722748
16.596012 16.403374 8.9722748
16.451698 16.548109 8.9722748
16.306122 16.691574 8.9722748
16.159296 16.833759 8.9722748
16.011229 16.974653 8.9722748
15.861934 17.114244 8.9722748
15.711422 17.252522 8.9722748
15.559704 17.389477 8.9722748
15.406793 17.525097 8.9722748
15.2527 17.659372 8.9722748
15.097436 17.792294 8.9722748
14.941014 17.923849 8.9722748
14.783446 18.054029 8.9722748
14.624744 18.182825 8.9722748
14.46492 18.310226 8.9722748
14.303986 18.436222 8.9722748
14.141954 18.560802 8.9722748
13.978838 18.68396 8.9722748
13.814649 18.805685 8.9722748
13.6494 18.925966 8.9722748
13.483104 19.044794 8.9722748
13.315773 19.162163 8.9722748
13.147421 19.278061 8.9722748
12.978061 19.392479 8.9722748
12.807704 19.505409 8.9722748
12.636365 19.616844 8.9722748
12.464056 19.726774 8.9722748
12.290792 19.83519 8.9722748
12.116584 19.942083 8.9722748
11.941446 20.047447 8.9722748
11.765392 20.151274 8.9722748
11.588436 20.253553 8.9722748
11.410591 20.35428 8.9722748
11.231871 20.453444 8.9722748
11.052288 20.551039 8.9722748
10.871858 20.647058 8.9722748
10.690593 20.741493 8.9722748
10.508508 20.834335 8.9722748
10.325617 20.925581 8.9722748
10.141933 21.015221 8.9722748
9.9574728 21.103247 8.9722748
9.7722473 21.189655 8.9722748
9.5862722 21.274437 8.9722748
9.3995619 21.357588 8.9722748
9.2121305 21.439098 8.9722748
9.0239916 21.518965 8.9722748
8.9296627 21.558279 8.9722748
8.9930849 -21.445263 9.1774235
9.1805792 -21.365669 9.1774235
9.3673687 -21.284437 9.1774235
9.5534391 -21.201572 9.1774235
9.7387772 -21.117081 9.1774235
9.9233685 -21.03097 9.1774235
10.107198 -20.943243 9.1774235
10.290252 -20.85391 9.1774235
10.472517 -20.76298 9.1774235
10.653977 -20.670454 9.1774235
10.834621 -20.576342 9.1774235
11.014434 -20.480652 9.1774235
11.193401 -20.383392 9.1774235
11.37151 -20.284567 9.1774235
11.548746 -20.184185 9.1774235
11.725097 -20.082256 9.1774235
11.900547 -19.978786 9.1774235
12.075085 -19.873783 9.1774235
12.248695 -19.767254 9.1774235
12.421367 -19.65921 9.1774235
12.593085 -19.549658 9.1774235
12.763838 -19.438604 9.1774235
12.933611 -19.326059 9.1774235
13.102391 -19.212034 9.1774235
13.270167 -19.096533 9.1774235
13.436925 -18.979567 9.1774235
13.602651 -18.861145 9.1774235
13.767334 -18.741276 9.1774235
13.930961 -18.619968 9.1774235
14.093518 -18.497232 9.1774235
14.254995 -18.373079 9.1774235
14.415378 -18.247515 9.1774235
14.574655 -18.12055 9.1774235
14.732814 -17.992195 9.1774235
14.889842 -17.862461 9.1774235
15.045728 -17.731356 9.1774235
15.200459 -17.59889 9.1774235
15.354025 -17.465075 9.1774235
15.506413 -17.329918 9.1774235
15.657611 -17.193432 9.1774235
15.807607 -17.055628 9.1774235
15.95639 -16.916515 9.1774235
16.103951 -16.776104 9.1774235
16.250275 -16.634407 9.1774235
16.395351 -16.491432 9.1774235
16.539171 -16.347193 9.1774235
16.681723 -16.201698 9.1774235
16.822992 -16.054962 9.1774235
16.962973 -15.906994 9.1774235
17.10165 -15.757805 9.1774235
17.239017 -15.607408 9.1774235
17.375061 -15.455812 9.1774235
17.509773 -15.303031 9.1774235
17.643139 -15.149076 9.1774235
17.775154 -14.993958 9.1774235
17.905804 -14.837691 9.1774235
18.03508 -14.680285 9.1774235
18.162973 -14.521752 9.1774235
18.289473 -14.362106 9.1774235
18.414568 -14.201358 9.1774235
18.538252 -14.03952 9.1774235
18.660513 -13.876605 9.1774235
18.781342 -13.712626 9.1774235
18.90073 -13.547594 9.1774235
19.018669 -13.381522 9.1774235
19.135147 -13.214425 9.1774235
19.250158 -13.046313 9.1774235
19.363693 -12.877201 9.1774235
19.47574 -12.7071 9.1774235
19.586296 -12.536025 9.1774235
19.695347 -12.363988 9.1774235
19.802887 -12.191002 9.1774235
19.908909 -12.01708 9.1774235
20.013403 -11.842237 9.1774235
20.116362 -11.666486 9.1774235
20.217777 -11.48984 9.1774235
20.31764 -11.312311 9.1774235
20.415945 -11.133915 9.1774235
20.512684 -10.954665 9.1774235
20.607849 -10.774574 9.1774235
20.701433 -10.593657 9.1774235
20.793428 -10.411926 9.1774235
20.883829 -10.229398 9.1774235
20.972628 -10.046084 9.1774235
21.059816 -9.8619995 9.1774235
21.14539 -9.6771584 9.1774235
21.229342 -9.4915743 9.1774235
21.311663 -9.3052626 9.1774235
21.392349 -9.1182375 9.1774235
21.471395 -8.9305115 9.1774235
21.548794 -8.7421017 9.1774235
2.5565829 -1.0111895 1.0850102
2.5569522 -0.98552388 1.0814618
2.5573187 -0.96002364 1.0780188
2.5576813 -0.93468267 1.0746791
2.5580449 -0.90949744 1.0714434
2.5584044 -0.88446087 1.068308
2.5587621 -0.85956854 1.0652726
2.5591166 -0.83481497 1.062335
2.5594711 -0.8101964 1.0594957
2.5598228 -0.78570676 1.0567517
2.5601726 -0.76134175 1.0541025
2.5605209 -0.73709691 1.0515473
2.5608664 -0.7129671 1.0490843
2.5612128 -0.68894887 1.0467138
2.5615554 -0.66503662 1.0444331
2.5618992 -0.64122707 1.0422431
2.5622401 -0.61751509 1.0401415
2.562578 -0.59389627 1.0381269
2.5629165 -0.5703674 1.0362004
2.5632551 -0.54692417 1.0343606
2.5635898 -0.52356178 1.0326055
2.5639238 -0.5002768 1.0309355
2.5642576 -0.47706535 1.0293499
2.5645885 -0.45392311 1.0278473
2.566201 -0.43106201 1.0269408
2.5685897 -0.40836328 1.026426
2.5720694 -0.38584957 1.0264264
2.575352 -0.36330622 1.026427
2.5784366 -0.34073496 1.0264276
2.5813239 -0.31813759 1.0264282
2.584013 -0.29551575 1.0264288
2.5865037 -0.2728712 1.0264294
2.5675454 -0.24815185 1.0180044
2.5678713 -0.2254996 1.0173115
2.5681961 -0.20287639 1.016697
2.5685203 -0.18027873 1.0161613
2.595978 -0.15936892 1.0264325
2.597276 -0.13662472 1.0264331
2.5983751 -0.11387005 1.0264339
2.5992739 -0.091106571 1.0264344
2.5999739 -0.068336084 1.026435
2.6004744 -0.04556033 1.0264356
2.600775 -0.022781052 1.0264363
2.6008768 0 1.026437
2.5714352 0.022524055 1.0148568
2.571759 0.045057241 1.0151014
2.5720816 0.067602985 1.0154235
2.5992866 0.091107011 1.0264394
2.5983911 0.11387075 1.0264403
2.5972953 0.13662574 1.0264407
2.5960004 0.15937029 1.0264413
2.5945063 0.18210264 1.0264419
2.592813 0.20482102 1.0264424
2.5909216 0.22752379 1.0264432
2.5888307 0.25020906 1.0264438
2.5750136 0.27165902 1.0218697
2.5753431 0.29452422 1.022985
2.5756717 0.31744096 1.0241808
2.5784836 0.34074116 1.0264462
2.5775044 0.36360988 1.027285
2.5768132 0.38656121 1.0283196
2.5769989 0.40970021 1.0297863
2.5773315 0.43293169 1.0313951
2.5776682 0.45623818 1.0330894
2.5780017 0.47962239 1.0348672
2.5783408 0.50308985 1.0367323
2.5786774 0.52664316 1.0386828
2.5790172 0.55028743 1.0407213
2.579355 0.57402575 1.0428466
2.5797036 0.59786522 1.0450647
2.5800517 0.62180775 1.0473721
2.5803914 0.64585555 1.0497663
2.5807405 0.67001742 1.0522555
2.5810864 0.69429475 1.0548358
2.5814419 0.71869552 1.0575132
2.5817897 0.74321961 1.060282
2.5821457 0.76787615 1.0631496
2.5825021 0.79266793 1.0661143
2.5828578 0.81759936 1.0691766
2.5832191 0.84267747 1.0723404
2.5835812 0.86790603 1.0756053
2.5839458 0.8932907 1.0789733
2.5843134 0.91883701 1.082446
2.5862255 0.9451139 1.0866728
21.771048 8.172904 9.1774235
21.698626 8.3632832 9.1774235
21.62454 8.5530205 9.1774235
21.548794 8.7421017 9.1774235
21.471395 8.9305115 9.1774235
21.392349 9.1182375 9.1774235
21.311663 9.3052626 9.1774235
21.229342 9.4915743 9.1774235
21.14539 9.6771584 9.1774235
21.059816 9.8619995 9.1774235
20.972628 10.046084 9.1774235
20.883829 10.229398 9.1774235
20.793428 10.411926 9.1774235
20.701433 10.593657 9.1774235
20.607849 10.774574 9.1774235
20.512684 10.954665 9.1774235
20.415945 11.133915 9.1774235
20.31764 11.312311 9.1774235
20.217777 11.48984 9.1774235
20.116362 11.666486 9.1774235
20.013403 11.842237 9.1774235
19.908909 12.01708 9.1774235
19.802887 12.191002 9.1774235
19.695347 12.363988 9.1774235
19.586296 12.536025 9.1774235
19.47574 12.7071 9.1774235
19.363693 12.877201 9.1774235
19.250158 13.046313 9.1774235
19.135147 13.214425 9.1774235
19.018669 13.381522 9.1774235
18.90073 13.547594 9.1774235
18.781342 13.712626 9.1774235
18.660513 13.876605 9.1774235
18.538252 14.03952 9.1774235
18.414568 14.201358 9.1774235
18.289473 14.362106 9.1774235
18.162973 14.521752 9.1774235
18.03508 14.680285 9.1774235
17.905804 14.837691 9.1774235
17.775154 14.993958 9.1774235
17.643139 15.149076 9.1774235
17.509773 15.303031 9.1774235
17.375061 15.455812 9.1774235
17.239017 15.607408 9.1774235
17.10165 15.757805 9.1774235
16.962973 15.906994 9.1774235
16.822992 16.054962 9.1774235
16.681723 16.201698 9.1774235
16.539171 16.347193 9.1774235
16.395351 16.491432 9.1774235
16.250275 16.634407 9.1774235
16.103951 16.776104 9.1774235
15.95639 16.916515 9.1774235
15.807607 17.055628 9.1774235
15.657611 17.193432 9.1774235
15.506413 17.329918 9.1774235
15.354025 17.465075 9.1774235
15.200459 17.59889 9.1774235
15.045728 17.731356 9.1774235
14.889842 17.862461 9.1774235
14.732814 17.992195 9.1774235
14.574655 18.12055 9.1774235
14.415378 18.247515 9.1774235
14.254995 18.373079 9.1774235
14.093518 18.497232 9.1774235
13.930961 18.619968 9.1774235
13.767334 18.741276 9.1774235
13.602651 18.861145 9.1774235
13.436925 18.979567 9.1774235
13.270167 19.096533 9.1774235
13.102391 19.212034 9.1774235
12.933611 19.326059 9.1774235
12.763838 19.438604 9.1774235
12.593085 19.549658 9.1774235
12.421367 19.65921 9.1774235
12.248695 19.767254 9.1774235
12.075085 19.873783 9.1774235
11.900547 19.978786 9.1774235
11.725097 20.082256 9.1774235
11.548746 20.184185 9.1774235
11.37151 20.284567 9.1774235
11.193401 20.383392 9.1774235
11.014434 20.480652 9.1774235
10.834621 20.576342 9.1774235
10.653977 20.670454 9.1774235
10.472517 20.76298 9.1774235
10.290252 20.85391 9.1774235
10.107198 20.943243 9.1774235
9.9233685 21.03097 9.1774235
9.7387772 21.117081 9.1774235
9.5534391 21.201572 9.1774235
9.3673687 21.284437 9.1774235
9.1805792 21.365669 9.1774235
8.9930849 21.445263 9.1774235
8.8990784 21.484444 9.1774235
8.9614801 -21.369898 9.3818617
9.1483154 -21.290585 9.3818617
9.3344488 -21.209639 9.3818617
9.519866 -21.127064 9.3818617
9.7045527 -21.04287 9.3818617
9.8884945 -20.95706 9.3818617
10.071678 -20.869642 9.3818617
10.254089 -20.780624 9.3818617
10.435713 -20.690012 9.3818617
10.616536 -20.597811 9.3818617
10.796545 -20.50403 9.3818617
10.975726 -20.408678 9.3818617
11.154064 -20.311758 9.3818617
11.331547 -20.213282 9.3818617
11.508161 -20.113253 9.3818617
11.68389 -20.011681 9.3818617
11.858725 -19.908573 9.3818617
12.032649 -19.80394 9.3818617
12.20565 -19.697786 9.3818617
12.377715 -19.590122 9.3818617
12.54883 -19.480953 9.3818617
12.718982 -19.370291 9.3818617
12.888158 -19.258142 9.3818617
13.056346 -19.144516 9.3818617
13.223532 -19.029421 9.3818617
13.389703 -18.912867 9.3818617
13.554847 -18.794861 9.3818617
13.718951 -18.675413 9.3818617
13.882003 -18.554533 9.3818617
14.043989 -18.432228 9.3818617
14.204899 -18.30851 9.3818617
14.364717 -18.183388 9.3818617
14.523435 -18.05687 9.3818617
14.681038 -17.928965 9.3818617
14.837515 -17.799686 9.3818617
14.992852 -17.669043 9.3818617
15.14704 -17.537043 9.3818617
15.300066 -17.403696 9.3818617
15.451919 -17.269016 9.3818617
15.602585 -17.133009 9.3818617
15.752054 -16.995689 9.3818617
15.900315 -16.857065 9.3818617
16.047356 -16.717148 9.3818617
16.193167 -16.575949 9.3818617
16.337734 -16.433475 9.3818617
16.481047 -16.289743 9.3818617
16.623096 -16.144762 9.3818617
16.763872 -15.99854 9.3818617
16.903358 -15.851092 9.3818617
17.04155 -15.702428 9.3818617
17.178434 -15.552558 9.3818617
17.314001 -15.401496 9.3818617
17.448238 -15.249251 9.3818617
17.581137 -15.095838 9.3818617
17.712687 -14.941265 9.3818617
17.842878 -14.785547 9.3818617
17.971699 -14.628695 9.3818617
18.099142 -14.470719 9.3818617
18.225197 -14.311633 9.3818617
18.349854 -14.15145 9.3818617
18.473103 -13.990181 9.3818617
18.594934 -13.827838 9.3818617
18.715338 -13.664435 9.3818617
18.834307 -13.499983 9.3818617
18.951832 -13.334496 9.3818617
19.067902 -13.167985 9.3818617
19.182508 -13.000464 9.3818617
19.295643 -12.831946 9.3818617
19.407297 -12.662443 9.3818617
19.517464 -12.491969 9.3818617
19.626131 -12.320537 9.3818617
19.733294 -12.148159 9.3818617
19.838943 -11.974849 9.3818617
19.943069 -11.80062 9.3818617
20.045666 -11.625486 9.3818617
20.146725 -11.449461 9.3818617
20.246239 -11.272556 9.3818617
20.344198 -11.094788 9.3818617
20.440596 -10.916167 9.3818617
20.535427 -10.736709 9.3818617
20.628681 -10.556428 9.3818617
20.720354 -10.375336 9.3818617
20.810436 -10.193448 9.3818617
20.898924 -10.010779 9.3818617
20.985806 -9.8273411 9.3818617
21.071077 -9.6431494 9.3818617
21.154734 -9.4582186 9.3818617
21.236767 -9.2725611 9.3818617
21.317171 -9.0861931 9.3818617
21.395939 -8.899127 9.3818617
21.473066 -8.7113791 9.3818617
21.548546 -8.5229626 9.3818617
21.622372 -8.3338919 9.3818617
21.694538 -8.1441822 9.3818617
21.765041 -7.9538469 9.3818617
21.833874 -7.7629018 9.3818617
21.901031 -7.5713615 9.3818617
21.966509 -7.37924 9.3818617
22.0303 -7.1865525 9.3818617
22.092402 -6.9933133 9.3818617
2.5597067 -0.78567111 1.0840528
2.5600584 -0.76130784 1.081336
2.5604064 -0.73706394 1.0787146
2.5607541 -0.71293586 1.0761888
2.5610993 -0.68891835 1.0737566
2.5614417 -0.66500705 1.071417
2.5617836 -0.64119816 1.0691696
2.5621238 -0.61748701 1.0670133
2.5624633 -0.59386969 1.0649475
2.5628021 -0.57034194 1.0629712
2.5631392 -0.5468995 1.0610834
2.5634742 -0.52353817 1.059283
2.563808 -0.50025421 1.0575697
2.5641432 -0.47704408 1.0559438
2.5644758 -0.45390317 1.0544031
2.564806 -0.43082768 1.0529468
2.5651374 -0.40781441 1.051576
2.5654678 -0.38485923 1.0502892
2.5657966 -0.36195824 1.0490855
2.5661225 -0.33910766 1.0479641
2.5664499 -0.31630445 1.0469261
2.5667772 -0.29354462 1.0459707
2.5671043 -0.27082461 1.0450972
2.5674312 -0.2481408 1.0443053
2.5677557 -0.22548945 1.0435939
2.5680802 -0.20286724 1.0429635
2.5684063 -0.18027073 1.0424147
2.5687304 -0.15769616 1.0419456
2.5690544 -0.13514018 1.041557
2.5693767 -0.11259924 1.0412478
2.5697012 -0.090070017 1.0410197
2.5700254 -0.067548938 1.0408714
2.5703487 -0.045032527 1.0408026
2.5706713 -0.022517363 1.0408134
2.5709946 0 1.0409044
2.5713184 0.022523031 1.0410753
2.5716422 0.045055192 1.0413264
2.5719669 0.067599967 1.0416577
2.5722916 0.090160817 1.0420691
2.5726151 0.11274116 1.0425602
2.5729392 0.13534454 1.0431319
2.5732658 0.1579746 1.0437853
2.5735917 0.18063469 1.0445193
2.5739176 0.20332837 1.0453343
2.5742428 0.22605912 1.0462303
2.5745707 0.24883083 1.0472093
2.5748994 0.27164698 1.0482707
2.5752275 0.29451102 1.0494142
2.5755563 0.31742674 1.0506409
2.5758865 0.34039798 1.0519515
2.5762174 0.36342832 1.0533464
2.5765495 0.38652164 1.054826
2.5768833 0.40968183 1.0563912
2.5772166 0.43291238 1.0580418
2.5775506 0.45621741 1.0597789
2.5778885 0.47960132 1.0616043
2.5782256 0.50306737 1.063517
2.5785625 0.52661961 1.0655178
2.5789013 0.55026269 1.0676086
2.5792434 0.57400095 1.0697907
2.5795853 0.59783781 1.0720633
2.5799296 0.62177831 1.0744287
2.5802753 0.64582652 1.0768871
2.5806231 0.66998696 1.0794402
2.580971 0.69426376 1.082088
2.5813744 0.71867669 1.0848548
22.26852 6.4104366 9.3818617
22.211517 6.6052403 9.3818617
22.152809 6.7995377 9.3818617
22.092402 6.9933133 9.3818617
22.0303 7.1865525 9.3818617
21.966509 7.37924 9.3818617
21.901031 7.5713615 9.3818617
21.833874 7.7629018 9.3818617
21.765041 7.9538469 9.3818617
21.694538 8.1441822 9.3818617
21.622372 8.3338919 9.3818617
21.548546 8.5229626 9.3818617
21.473066 8.7113791 9.3818617
21.395939 8.899127 9.3818617
21.317171 9.0861931 9.3818617
21.236767 9.2725611 9.3818617
21.154734 9.4582186 9.3818617
21.071077 9.6431494 9.3818617
20.985806 9.8273411 9.3818617
20.898924 10.010779 9.3818617
20.810436 10.193448 9.3818617
20.720354 10.375336 9.3818617
20.628681 10.556428 9.3818617
20.535427 10.736709 9.3818617
20.440596 10.916167 9.3818617
20.344198 11.094788 9.3818617
20.246239 11.272556 9.3818617
20.146725 11.449461 9.3818617
20.045666 11.625486 9.3818617
19.943069 11.80062 9.3818617
19.838943 11.974849 9.3818617
19.733294 12.148159 9.3818617
19.626131 12.320537 9.3818617
19.517464 12.491969 9.3818617
19.407297 12.662443 9.3818617
19.295643 12.831946 9.3818617
19.182508 13.000464 9.3818617
19.067902 13.167985 9.3818617
18.951832 13.334496 9.3818617
18.834307 13.499983 9.3818617
18.715338 13.664435 9.3818617
18.594934 13.827838 9.3818617
18.473103 13.990181 9.3818617
18.349854 14.15145 9.3818617
18.225197 14.311633 9.3818617
18.099142 14.470719 9.3818617
17.971699 14.628695 9.3818617
17.842878 14.785547 9.3818617
17.712687 14.941265 9.3818617
17.581137 15.095838 9.3818617
17.448238 15.249251 9.3818617
17.314001 15.401496 9.3818617
17.178434 15.552558 9.3818617
17.04155 15.702428 9.3818617
16.903358 15.851092 9.3818617
16.763872 15.99854 9.3818617
16.623096 16.144762 9.3818617
16.481047 16.289743 9.3818617
16.337734 16.433475 9.3818617
16.193167 16.575949 9.3818617
16.047356 16.717148 9.3818617
15.900315 16.857065 9.3818617
15.752054 16.995689 9.3818617
15.602585 17.133009 9.3818617
15.451919 17.269016 9.3818617
15.300066 17.403696 9.3818617
15.14704 17.537043 9.3818617
14.992852 17.669043 9.3818617
14.837515 17.799686 9.3818617
14.681038 17.928965 9.3818617
14.523435 18.05687 9.3818617
14.364717 18.183388 9.3818617
14.204899 18.30851 9.3818617
14.043989 18.432228 9.3818617
13.882003 18.554533 9.3818617
13.718951 18.675413 9.3818617
13.554847 18.794861 9.3818617
13.389703 18.912867 9.3818617
13.223532 19.029421 9.3818617
13.056346 19.144516 9.3818617
12.888158 19.258142 9.3818617
12.718982 19.370291 9.3818617
12.54883 19.480953 9.3818617
12.377715 19.590122 9.3818617
12.20565 19.697786 9.3818617
12.032649 19.80394 9.3818617
11.858725 19.908573 9.3818617
11.68389 20.011681 9.3818617
11.508161 20.113253 9.3818617
11.331547 20.213282 9.3818617
11.154064 20.311758 9.3818617
10.975726 20.408678 9.3818617
10.796545 20.50403 9.3818617
10.616536 20.597811 9.3818617
10.435713 20.690012 9.3818617
10.254089 20.780624 9.3818617
10.071678 20.869642 9.3818617
9.8884945 20.95706 9.3818617
9.7045527 21.04287 9.3818617
9.519866 21.127064 9.3818617
9.3344488 21.209639 9.3818617
9.1483154 21.290585 9.3818617
8.9614801 21.369898 9.3818617
8.8678045 21.408939 9.3818617
8.9291811 -21.292875 9.5855713
9.1153431 -21.213848 9.5855713
9.3008051 -21.133192 9.5855713
9.4855537 -21.050917 9.5855713
9.6695747 -20.967026 9.5855713
9.8528538 -20.881525 9.5855713
10.035378 -20.794422 9.5855713
10.217131 -20.705725 9.5855713
10.3981 -20.615438 9.5855713
10.578272 -20.523571 9.5855713
10.757631 -20.43013 9.5855713
10.936167 -20.335119 9.5855713
11.113862 -20.23855 9.5855713
11.290706 -20.140427 9.5855713
11.466682 -20.040758 9.5855713
11.641779 -19.939554 9.5855713
11.815983 -19.836819 9.5855713
11.989281 -19.732561 9.5855713
12.161657 -19.626791 9.5855713
12.333102 -19.519514 9.5855713
12.5036 -19.41074 9.5855713
12.67314 -19.300476 9.5855713
12.841706 -19.188732 9.5855713
13.009288 -19.075514 9.5855713
13.175871 -18.960835 9.5855713
13.341443 -18.8447 9.5855713
13.505992 -18.727119 9.5855713
13.669505 -18.608103 9.5855713
13.831968 -18.487658 9.5855713
13.993371 -18.365793 9.5855713
14.153701 -18.242521 9.5855713
14.312943 -18.117849 9.5855713
14.471088 -17.991787 9.5855713
14.628123 -17.864346 9.5855713
14.784037 -17.735533 9.5855713
14.938814 -17.605358 9.5855713
15.092446 -17.473833 9.5855713
15.244921 -17.340969 9.5855713
15.396226 -17.206774 9.5855713
15.54635 -17.071259 9.5855713
15.69528 -16.934433 9.5855713
15.843006 -16.796309 9.5855713
15.989517 -16.656895 9.5855713
16.134802 -16.516205 9.5855713
16.278849 -16.374247 9.5855713
16.421646 -16.231031 9.5855713
16.563183 -16.086571 9.5855713
16.703449 -15.940878 9.5855713
16.842436 -15.793961 9.5855713
16.980129 -15.645832 9.5855713
17.116518 -15.496503 9.5855713
17.251596 -15.345984 9.5855713
17.385349 -15.194289 9.5855713
17.517769 -15.041429 9.5855713
17.648846 -14.887413 9.5855713
17.778566 -14.732256 9.5855713
17.906925 -14.575969 9.5855713
18.033909 -14.418563 9.5855713
18.15951 -14.260051 9.5855713
18.283716 -14.100445 9.5855713
18.406521 -13.939756 9.5855713
18.527912 -13.777999 9.5855713
18.647884 -13.615185 9.5855713
18.766424 -13.451325 9.5855713
18.883524 -13.286435 9.5855713
18.999176 -13.120524 9.5855713
19.113369 -12.953608 9.5855713
19.226097 -12.785697 9.5855713
19.337349 -12.616805 9.5855713
19.447117 -12.446945 9.5855713
19.555395 -12.276131 9.5855713
19.66217 -12.104374 9.5855713
19.767439 -11.931688 9.5855713
19.871189 -11.758088 9.5855713
19.973417 -11.583586 9.5855713
20.07411 -11.408194 9.5855713
20.173265 -11.231927 9.5855713
20.270872 -11.054799 9.5855713
20.366922 -10.876822 9.5855713
20.461412 -10.698011 9.5855713
20.554331 -10.518379 9.5855713
20.645672 -10.33794 9.5855713
20.735432 -10.156709 9.5855713
20.823597 -9.9746971 9.5855713
20.910168 -9.7919207 9.5855713
20.995132 -9.6083937 9.5855713
21.078487 -9.4241285 9.5855713
21.160225 -9.2391405 9.5855713
21.240339 -9.0534439 9.5855713
21.318823 -8.867053 9.5855713
21.395672 -8.6799812 9.5855713
21.470879 -8.4922438 9.5855713
21.544437 -8.303854 9.5855713
21.616344 -8.1148281 9.5855713
21.686594 -7.9251795 9.5855713
21.755178 -7.7349224 9.5855713
21.822094 -7.5440722 9.5855713
21.887335 -7.3526435 9.5855713
21.950897 -7.1606503 9.5855713
22.012775 -6.9681077 9.5855713
22.072966 -6.7750306 9.5855713
22.13146 -6.5814338 9.5855713
22.188259 -6.387332 9.5855713
22.243355 -6.19274 9.5855713
22.296743 -5.997673 9.5855713
22.348421 -5.802146 9.5855713
22.398384 -5.6061735 9.5855713
22.44663 -5.409771 9.5855713
22.493153 -5.2129536 9.5855713
22.537951 -5.0157361 9.5855713
22.581018 -4.8181338 9.5855713
22.622355 -4.620162 9.5855713
2.5636916 -0.50023144 1.0843923
2.5640268 -0.47702241 1.0827252
2.5643585 -0.45388243 1.0811449
2.5646908 -0.43080837 1.0796527
2.5650222 -0.40779611 1.0782471
2.5653508 -0.38484168 1.0769268
2.5656805 -0.36194187 1.075693
2.5660083 -0.33909261 1.0745441
2.5663362 -0.31629041 1.0734799
2.566663 -0.29353157 1.0725
2.5669897 -0.27081251 1.0716043
2.5673141 -0.2481295 1.0707912
2.5676389 -0.22547919 1.0700619
2.567965 -0.20285812 1.0694162
2.5682888 -0.18026249 1.0688525
2.5686133 -0.15768898 1.0683717
2.5689375 -0.13513404 1.0679733
2.5692618 -0.11259419 1.0676571
2.5695863 -0.090065986 1.0674232
2.5699084 -0.067545861 1.0672703
2.5702329 -0.045030501 1.0672003
2.5705559 -0.022516353 1.0672116
2.5708792 0 1.0673048
2.571203 0.022522019 1.0674802
2.5715268 0.045053169 1.0677376
2.571851 0.06759692 1.0680771
2.5721745 0.090156712 1.0684984
2.5725002 0.11273611 1.0690029
2.5728245 0.1353385 1.0695891
2.573149 0.15796743 1.0702584
2.5734746 0.18062647 1.0710107
2.5738008 0.20331915 1.0718466
2.5741282 0.22604905 1.0727663
2.5744541 0.24881956 1.0737692
2.5747833 0.27163473 1.0748577
2.5751112 0.2944977 1.0760301
2.5754402 0.31741244 1.077288
2.5757706 0.34038264 1.078632
2.5761018 0.36341199 1.0800623
2.5764339 0.38650432 1.0815796
2.5767663 0.40966323 1.0831839
2.5777423 0.43300068 1.0851469
22.735935 4.0241804 9.5855713
22.699816 4.2231703 9.5855713
22.661955 4.4218359 9.5855713
22.622355 4.620162 9.5855713
22.581018 4.8181338 9.5855713
22.537951 5.0157361 9.5855713
22.493153 5.2129536 9.5855713
22.44663 5.409771 9.5855713
22.398384 5.6061735 9.5855713
22.348421 5.802146 9.5855713
22.296743 5.997673 9.5855713
22.243355 6.19274 9.5855713
22.188259 6.387332 9.5855713
22.13146 6.5814338 9.5855713
22.072966 6.7750306 9.5855713
22.012775 6.9681077 9.5855713
21.950897 7.1606503 9.5855713
21.887335 7.3526435 9.5855713
21.822094 7.5440722 9.5855713
21.755178 7.7349224 9.5855713
21.686594 7.9251795 9.5855713
21.616344 8.1148281 9.5855713
21.544437 8.303854 9.5855713
21.470879 8.4922438 9.5855713
21.395672 8.6799812 9.5855713
21.318823 8.867053 9.5855713
21.240339 9.0534439 9.5855713
21.160225 9.2391405 9.5855713
21.078487 9.4241285 9.5855713
20.995132 9.6083937 9.5855713
20.910168 9.7919207 9.5855713
20.823597 9.9746971 9.5855713
20.735432 10.156709 9.5855713
20.645672 10.33794 9.5855713
20.554331 10.518379 9.5855713
20.461412 10.698011 9.5855713
20.366922 10.876822 9.5855713
20.270872 11.054799 9.5855713
20.173265 11.231927 9.5855713
20.07411 11.408194 9.5855713
19.973417 11.583586 9.5855713
19.871189 11.758088 9.5855713
19.767439 11.931688 9.5855713
19.66217 12.104374 9.5855713
19.555395 12.276131 9.5855713
19.447117 12.446945 9.5855713
19.337349 12.616805 9.5855713
19.226097 12.785697 9.5855713
19.113369 12.953608 9.5855713
18.999176 13.120524 9.5855713
18.883524 13.286435 9.5855713
18.766424 13.451325 9.5855713
18.647884 13.615185 9.5855713
18.527912 13.777999 9.5855713
18.406521 13.939756 9.5855713
18.283716 14.100445 9.5855713
18.15951 14.260051 9.5855713
18.033909 14.418563 9.5855713
17.906925 14.575969 9.5855713
17.778566 14.732256 9.5855713
17.648846 14.887413 9.5855713
17.517769 15.041429 9.5855713
17.385349 15.194289 9.5855713
17.251596 15.345984 9.5855713
17.116518 15.496503 9.5855713
16.980129 15.645832 9.5855713
16.842436 15.793961 9.5855713
16.703449 15.940878 9.5855713
16.563183 16.086571 9.5855713
16.421646 16.231031 9.5855713
16.278849 16.374247 9.5855713
16.134802 16.516205 9.5855713
15.989517 16.656895 9.5855713
15.843006 16.796309 9.5855713
15.69528 16.934433 9.5855713
15.54635 17.071259 9.5855713
15.396226 17.206774 9.5855713
15.244921 17.340969 9.5855713
15.092446 17.473833 9.5855713
14.938814 17.605358 9.5855713
14.784037 17.735533 9.5855713
14.628123 17.864346 9.5855713
14.471088 17.991787 9.5855713
14.312943 18.117849 9.5855713
14.153701 18.242521 9.5855713
13.993371 18.365793 9.5855713
13.831968 18.487658 9.5855713
13.669505 18.608103 9.5855713
13.505992 18.727119 9.5855713
13.341443 18.8447 9.5855713
13.175871 18.960835 9.5855713
13.009288 19.075514 9.5855713
12.841706 19.188732 9.5855713
12.67314 19.300476 9.5855713
12.5036 19.41074 9.5855713
12.333102 19.519514 9.5855713
12.161657 19.626791 9.5855713
11.989281 19.732561 9.5855713
11.815983 19.836819 9.5855713
11.641779 19.939554 9.5855713
11.466682 20.040758 9.5855713
11.290706 20.140427 9.5855713
11.113862 20.23855 9.5855713
10.936167 20.335119 9.5855713
10.757631 20.43013 9.5855713
10.578272 20.523571 9.5855713
10.3981 20.615438 9.5855713
10.217131 20.705725 9.5855713
10.035378 20.794422 9.5855713
9.8528538 20.881525 9.5855713
9.6695747 20.967026 9.5855713
9.4855537 21.050917 9.5855713
9.3008051 21.133192 9.5855713
9.1153431 21.213848 9.5855713
8.9291811 21.292875 9.5855713
8.8358421 21.331778 9.5855713
8.8961887 -21.214201 9.788538
9.0816631 -21.135466 9.788538
9.2664404 -21.055109 9.788538
9.4505062 -20.973137 9.788538
9.6338472 -20.889555 9.788538
9.8164492 -20.804371 9.788538
9.9982977 -20.71759 9.788538
10.179379 -20.629221 9.788538
10.35968 -20.539268 9.788538
10.539186 -20.447741 9.788538
10.717884 -20.354643 9.788538
10.895759 -20.259985 9.788538
11.072798 -20.163771 9.788538
11.248988 -20.066011 9.788538
11.424314 -19.966711 9.788538
11.598764 -19.865879 9.788538
11.772325 -19.763525 9.788538
11.944982 -19.659653 9.788538
12.116722 -19.554272 9.788538
12.287533 -19.447392 9.788538
12.457401 -19.33902 9.788538
12.626314 -19.229164 9.788538
12.794258 -19.117832 9.788538
12.96122 -19.005033 9.788538
13.127188 -18.890778 9.788538
13.292149 -18.775072 9.788538
13.456089 -18.657925 9.788538
13.618998 -18.539349 9.788538
13.780862 -18.419348 9.788538
13.941668 -18.297935 9.788538
14.101404 -18.175117 9.788538
14.260059 -18.050907 9.788538
14.417621 -17.92531 9.788538
14.574075 -17.798338 9.788538
14.729411 -17.670002 9.788538
14.883617 -17.54031 9.788538
15.036682 -17.409271 9.788538
15.188593 -17.276897 9.788538
15.339339 -17.143196 9.788538
15.488908 -17.008183 9.788538
15.637288 -16.871862 9.788538
15.784469 -16.734249 9.788538
15.930439 -16.59535 9.788538
16.075186 -16.455179 9.788538
16.2187 -16.313745 9.788538
16.36097 -16.171061 9.788538
16.501986 -16.027134 9.788538
16.641733 -15.881978 9.788538
16.780205 -15.735604 9.788538
16.917389 -15.588023 9.788538
17.053276 -15.439245 9.788538
17.187855 -15.289284 9.788538
17.321114 -15.138149 9.788538
17.453045 -14.985852 9.788538
17.583635 -14.832407 9.788538
17.712877 -14.677823 9.788538
17.840761 -14.522113 9.788538
17.967276 -14.365289 9.788538
18.092413 -14.207362 9.788538
18.21616 -14.048346 9.788538
18.338511 -13.888251 9.788538
18.459455 -13.727092 9.788538
18.578983 -13.564878 9.788538
18.697084 -13.401626 9.788538
18.813751 -13.237344 9.788538
18.928976 -13.072046 9.788538
19.042747 -12.905746 9.788538
19.155058 -12.738456 9.788538
19.2659 -12.570188 9.788538
19.375263 -12.400955 9.788538
19.483139 -12.230772 9.788538
19.589521 -12.05965 9.788538
19.694401 -11.887603 9.788538
19.79777 -11.714643 9.788538
19.899618 -11.540786 9.788538
19.999941 -11.366042 9.788538
20.098728 -11.190427 9.788538
20.195974 -11.013953 9.788538
20.29167 -10.836634 9.788538
20.385811 -10.658484 9.788538
20.478386 -10.479516 9.788538
20.569389 -10.299744 9.788538
20.658817 -10.119182 9.788538
20.746658 -9.9378424 9.788538
20.832907 -9.7557411 9.788538
20.917559 -9.5728922 9.788538
21.000605 -9.389308 9.788538
21.082041 -9.2050037 9.788538
21.161858 -9.0199928 9.788538
21.240053 -8.8342905 9.788538
21.316618 -8.6479101 9.788538
21.391546 -8.460866 9.788538
21.464834 -8.2731724 9.788538
21.536476 -8.0848446 9.788538
21.606464 -7.8958969 9.788538
21.674797 -7.7063432 9.788538
21.741465 -7.5161982 9.788538
21.806465 -7.3254762 9.788538
21.869793 -7.1341925 9.788538
21.931442 -6.9423614 9.788538
21.991409 -6.7499976 9.788538
22.049688 -6.557116 9.788538
22.106276 -6.3637314 9.788538
22.161167 -6.1698585 9.788538
22.214359 -5.9755125 9.788538
22.265846 -5.7807078 9.788538
22.315626 -5.5854592 9.788538
22.363693 -5.3897829 9.788538
22.410044 -5.1936927 9.788538
22.454676 -4.9972038 9.788538
22.497585 -4.8003316 9.788538
22.538769 -4.6030912 9.788538
22.578222 -4.4054976 9.788538
22.615944 -4.2075663 9.788538
22.65193 -4.0093117 9.788538
22.686178 -3.8107498 9.788538
22.718687 -3.6118956 9.788538
22.749453 -3.4127641 9.788538
22.778471 -3.2133708 9.788538
22.805744 -3.013731 9.788538
22.831266 -2.8138599 9.788538
22.855038 -2.6137731 9.788538
22.877054 -2.4134855 9.788538
22.897316 -2.2130129 9.788538
22.915821 -2.0123706 9.788538
22.93257 -1.8115739 9.788538
22.947557 -1.610638 9.788538
22.960785 -1.4095787 9.788538
22.97225 -1.2084112 9.788538
22.981953 -1.007151 9.788538
22.989893 -0.80581355 9.788538
22.996069 -0.60441428 9.788538
23.000481 -0.40296862 9.788538
23.003128 -0.20149204 9.788538
23.004011 0 9.788538
23.003128 0.20149204 9.788538
23.000481 0.40296862 9.788538
22.996069 0.60441428 9.788538
22.989893 0.80581355 9.788538
22.981953 1.007151 9.788538
22.97225 1.2084112 9.788538
22.960785 1.4095787 9.788538
22.947557 1.610638 9.788538
22.93257 1.8115739 9.788538
22.915821 2.0123706 9.788538
22.897316 2.2130129 9.788538
22.877054 2.4134855 9.788538
22.855038 2.6137731 9.788538
22.831266 2.8138599 9.788538
22.805744 3.013731 9.788538
22.778471 3.2133708 9.788538
22.749453 3.4127641 9.788538
22.718687 3.6118956 9.788538
22.686178 3.8107498 9.788538
22.65193 4.0093117 9.788538
22.615944 4.2075663 9.788538
22.578222 4.4054976 9.788538
22.538769 4.6030912 9.788538
22.497585 4.8003316 9.788538
22.454676 4.9972038 9.788538
22.410044 5.1936927 9.788538
22.363693 5.3897829 9.788538
22.315626 5.5854592 9.788538
22.265846 5.7807078 9.788538
22.214359 5.9755125 9.788538
22.161167 6.1698585 9.788538
22.106276 6.3637314 9.788538
22.049688 6.557116 9.788538
21.991409 6.7499976 9.788538
21.931442 6.9423614 9.788538
21.869793 7.1341925 9.788538
21.806465 7.3254762 9.788538
21.741465 7.5161982 9.788538
21.674797 7.7063432 9.788538
21.606464 7.8958969 9.788538
21.536476 8.0848446 9.788538
21.464834 8.2731724 9.788538
21.391546 8.460866 9.788538
21.316618 8.6479101 9.788538
21.240053 8.8342905 9.788538
21.161858 9.0199928 9.788538
21.082041 9.2050037 9.788538
21.000605 9.389308 9.788538
20.917559 9.5728922 9.788538
20.832907 9.7557411 9.788538
20.746658 9.9378424 9.788538
20.658817 10.119182 9.788538
20.569389 10.299744 9.788538
20.478386 10.479516 9.788538
20.385811 10.658484 9.788538
20.29167 10.836634 9.788538
20.195974 11.013953 9.788538
20.098728 11.190427 9.788538
19.999941 11.366042 9.788538
19.899618 11.540786 9.788538
19.79777 11.714643 9.788538
19.694401 11.887603 9.788538
19.589521 12.05965 9.788538
19.483139 12.230772 9.788538
19.375263 12.400955 9.788538
19.2659 12.570188 9.788538
19.155058 12.738456 9.788538
19.042747 12.905746 9.788538
18.928976 13.072046 9.788538
18.813751 13.237344 9.788538
18.697084 13.401626 9.788538
18.578983 13.564878 9.788538
18.459455 13.727092 9.788538
18.338511 13.888251 9.788538
18.21616 14.048346 9.788538
18.092413 14.207362 9.788538
