# .PCD v0.7 - Point Cloud Data file format
VERSION 0.7
FIELDS x y z
SIZE 4 4 4
TYPE F F F
COUNT 1 1 1
WIDTH 1500
HEIGHT 1
VIEWPOINT 0 0 0 1 0 0 0
POINTS 1500
DATA ascii
2.6827292 0.67147011 0.68786657
2.6834764 0.69669002 0.68959647
2.6401095 0.71017158 0.68002456
2.6904905 0.9301241 0.68151093
2.6912813 0.95686883 0.68380803
2.698781 1.2066169 0.68025768
2.5990028 -1.507292 0.69135273
2.619045 -1.4884133 0.69318938
2.6199245 -1.4587029 0.69001389
2.615561 -1.2528782 0.69429952
2.6265843 -1.2299904 0.69433904
2.6273975 -1.2024249 0.69174325
2.5613887 -1.0653481 0.69001156
2.6336119 -0.98866427 0.69970274
2.6343803 -0.96271169 0.69763976
2.6351423 -0.93690896 0.69564152
2.6359024 -0.91125256 0.69370848
2.6366589 -0.88573653 0.69183916
2.6374097 -0.86035514 0.69003224
2.5687454 -0.81313211 0.69543082
2.5694671 -0.7886669 0.69372928
2.5701873 -0.76431996 0.69208968
2.5775864 -0.74200958 0.69230533
2.6453357 -0.58870947 0.69947791
2.6488807 -0.46884254 0.69431609
2.6495867 -0.44506887 0.69345266
2.6502872 -0.42135185 0.69264352
2.6509883 -0.39768863 0.69188982
2.651686 -0.37407473 0.69119018
2.6523843 -0.35050699 0.69054544
2.583952 -0.29550877 0.69576478
2.5846248 -0.27267298 0.6952762
2.5853014 -0.24986795 0.6948427
2.5913517 -0.045400504 0.69334501
2.5920222 -0.022704381 0.69344455
2.5926948 0 0.69359791
2.6682942 0.18728165 0.69039446
2.5987687 0.20529148 0.69738859
2.5994468 0.22827242 0.69808036
2.6001301 0.25130114 0.69882822
2.6008117 0.27438068 0.6996305
2.6717935 0.3055546 0.69409829
2.6724968 0.32937425 0.69500387
2.6732063 0.35325858 0.69596642
2.6739135 0.37721035 0.69698399
2.6746252 0.40123448 0.69805884
2.6753371 0.42533436 0.6991902
2.6406193 0.96499157 0.69929188
2.6220303 0.98431647 0.69662571
2.6228163 1.0109099 0.69916034
2.6961513 1.1213994 0.699067
2.629446 1.2313305 0.6950956
2.6302929 1.2599348 0.69821006
2.5484023 -1.5079287 0.70889491
2.5566416 -1.252304 0.70811021
2.6409998 -0.73527694 0.70758033
2.6417301 -0.71060753 0.70608127
2.6424577 -0.68604058 0.70464253
2.6431811 -0.66157144 0.70326322
2.6439035 -0.63719642 0.7019434
2.6446197 -0.61291009 0.70068139
2.5764296 -0.54973525 0.70476168
2.5771241 -0.52632588 0.70366359
2.5778127 -0.50298679 0.7026217
2.6760538 0.44951472 0.70037961
2.6063416 0.46131328 0.70808607
2.6070433 0.48502538 0.70940369
2.678942 0.54712015 0.7057212
2.6796696 0.57176375 0.70720512
2.680402 0.59651345 0.70875019
2.6399992 0.71014196 0.70561862
2.6143351 0.72785324 0.70043629
2.6150753 0.75280148 0.7023744
2.6158159 0.77788895 0.70437634
2.6880367 0.85089356 0.70130098
2.6888115 0.87712312 0.70348066
2.6895938 0.90351897 0.70572883
2.6903813 0.93008631 0.70804602
2.6236081 1.0376995 0.70176744
2.6969829 1.1495572 0.70186651
2.697823 1.1779443 0.70474327
2.6986716 1.206568 0.70769864
2.6640246 1.2191873 0.70138651
2.5475197 -1.537691 0.71236885
2.5988982 -1.5072314 0.71924138
2.6198173 -1.4586432 0.71784812
2.6206861 -1.4292014 0.71462852
2.6215503 -1.4000219 0.7114929
2.5542347 -1.3070924 0.71367675
2.5550582 -1.2793983 0.71074831
2.6272905 -1.2023759 0.71867669
2.6280999 -1.1750157 0.71605527
2.6289036 -1.1478522 0.71350735
2.6297021 -1.1208795 0.71103209
2.5612833 -1.0653044 0.71598196
2.5620511 -1.0393951 0.71362418
2.5628119 -1.013653 0.71133566
2.5870221 -0.9971137 0.71560377
2.6357934 -0.91121483 0.71981782
2.6365473 -0.88569903 0.71787751
2.6372998 -0.86031932 0.71600306
2.5693591 -0.78863376 0.71900463
2.5700815 -0.76428849 0.71730584
2.5774829 -0.74197972 0.71753013
2.626312 -0.48861024 0.714647
2.648773 -0.46882346 0.71961373
2.6494768 -0.44505042 0.71871829
2.6501794 -0.42133468 0.71788025
2.650878 -0.39767206 0.71709841
2.6515775 -0.37405941 0.7163738
2.6522739 -0.35049242 0.71570504
2.652971 -0.32696781 0.7150929
2.5845201 -0.27266195 0.71983194
2.5851927 -0.24985746 0.71938217
2.6557431 -0.23321612 0.71319872
2.6564336 -0.20984678 0.71286321
2.6571267 -0.18649782 0.71258348
2.657815 -0.16316512 0.7123574
2.6585069 -0.13984567 0.71218723
2.6591949 -0.11653539 0.71207076
2.6598849 -0.09323103 0.71200961
2.660573 -0.069928832 0.71200246
2.5912428 -0.045398593 0.71783149
2.5919132 -0.022703428 0.71793461
2.5925856 0 0.71809322
2.6633329 0.023329018 0.71252239
2.6640248 0.046673734 0.71278948
2.6647148 0.0700377 0.71311092
2.6654062 0.093424559 0.71348757
2.6660986 0.11683793 0.7139194
2.6667933 0.14028156 0.71440709
2.6674898 0.16375907 0.7149505
2.6681828 0.18727382 0.71554846
2.6716833 0.30554199 0.71938765
2.6077492 0.5088281 0.71078134
2.6811383 0.62137347 0.71035677
2.6818762 0.64634806 0.71202499
2.6826172 0.67144203 0.71375585
2.6833668 0.69666153 0.71555144
2.6911707 0.95682949 0.71043223
2.6189387 -1.4883528 0.72115195
2.6154556 -1.2528276 0.72133279
2.6264739 -1.2299387 0.7213726
2.6335039 -0.98862368 0.72603804
2.6342716 -0.96267188 0.72389716
2.6350358 -0.93687105 0.72182435
2.5686359 -0.81309742 0.72076768
2.6430707 -0.66154385 0.72888607
2.6437933 -0.6371699 0.72751832
2.6445129 -0.6128853 0.72621113
2.6452265 -0.58868521 0.72496331
2.5763228 -0.54971248 0.72965187
2.5770152 -0.52630365 0.72851431
2.5777056 -0.50296593 0.72743618
2.5838432 -0.29549634 0.72033674
2.5986583 0.20528278 0.72201759
2.5993404 0.22826308 0.72273487
2.6000195 0.25129044 0.723508
2.600703 0.27436921 0.72433913
2.6723878 0.32936084 0.7203266
2.6730957 0.35324395 0.72132373
2.6738031 0.37719476 0.72237843
2.674515 0.40121794 0.7234925
2.6752272 0.42531687 0.72466516
2.6759417 0.44949591 0.72589737
2.6142282 0.7278235 0.72595686
2.6149633 0.75276923 0.7279641
2.6871541 0.82478958 0.72550362
2.6879249 0.85085815 0.727696
2.6887021 0.87708735 0.7299583
2.6405091 0.96495134 0.72561121
2.6219211 0.98427546 0.72284472
2.6227074 1.0108678 0.72547483
2.6234999 1.0376567 0.72818023
2.6952112 1.0934166 0.72345412
2.6960382 1.1213523 0.72628468
2.6968722 1.14951 0.72919393
2.663914 1.2191365 0.72869474
2.629338 1.23128 0.72215927
2.6301837 1.2598825 0.72539473
2.5482974 -1.5078667 0.73649591
2.6214442 -1.3999653 0.73919547
2.6223011 -1.3710396 0.73602241
2.5549498 -1.2793441 0.73749822
2.5565369 -1.2522528 0.73476201
2.6295938 -1.1208334 0.73779362
2.5619426 -1.039351 0.73962402
2.5627053 -1.013611 0.73725277
2.6408904 -0.73524648 0.73336077
2.6416204 -0.71057802 0.73180699
2.6423481 -0.68601215 0.73031586
2.6262078 -0.48859084 0.73988748
2.6556332 -0.23320648 0.73838687
2.6563241 -0.20983812 0.73803961
2.6570148 -0.18648997 0.73774934
2.6577051 -0.16315839 0.73751587
2.6583953 -0.1398398 0.7373392
2.659085 -0.11653057 0.73721915
2.659775 -0.09322717 0.73715574
2.6604629 -0.069925942 0.73714834
2.6632211 0.023328036 0.73768616
2.6639128 0.046671771 0.73796266
2.6646032 0.070034765 0.73829556
2.6652963 0.093420699 0.73868603
2.6659887 0.11683311 0.73913312
2.6666834 0.14027578 0.73963809
2.6062343 0.46129426 0.7330938
2.6069357 0.48500541 0.73445797
2.6076386 0.50880653 0.73588336
2.6788292 0.54709709 0.73143339
2.6795602 0.57174039 0.73297226
2.6802914 0.59648877 0.73457336
2.6810257 0.62134737 0.73623794
2.6817656 0.64632142 0.73796749
2.682507 0.67141449 0.73976153
2.6398871 0.71011174 0.73132676
2.6157064 0.77785641 0.73003972
2.6894825 0.90348166 0.73229069
2.6902685 0.93004733 0.73469466
2.6910596 0.95679003 0.73717117
2.6977112 1.1778955 0.73218238
2.6985595 1.2065179 0.73525274
2.5474157 -1.5376283 0.74010533
2.5987928 -1.5071702 0.74724561
2.6188304 -1.4882914 0.74922997
2.6197102 -1.4585836 0.74579781
2.6205809 -1.429144 0.74245346
2.554131 -1.3070394 0.7405383
2.6153491 -1.2527766 0.74848235
2.6263669 -1.2298887 0.74852371
2.627182 -1.2023262 0.74572587
2.6279924 -1.1749675 0.74300599
2.6287959 -1.1478051 0.74036223
2.5611775 -1.0652603 0.74206859
2.5869172 -0.99707329 0.74167717
2.6349266 -0.93683225 0.74812371
2.6356862 -0.91117775 0.74604464
2.6364398 -0.88566285 0.74403352
2.6371899 -0.86028349 0.74209017
2.5685306 -0.81306404 0.74622339
2.5692534 -0.7886014 0.74439806
2.569973 -0.76425624 0.74263841
2.5773783 -0.74194962 0.74287182
2.6486626 -0.46880391 0.7450282
2.6493664 -0.44503185 0.74410117
2.6500688 -0.4213171 0.74323338
2.6507671 -0.3976554 0.74242389
2.6514666 -0.37404376 0.74167377
2.6521628 -0.35047773 0.74098134
2.6528602 -0.32695413 0.74034762
2.583735 -0.29548395 0.74502701
2.5844116 -0.27265051 0.74450493
2.5850859 -0.24984713 0.74404013
2.5911353 -0.045396712 0.74243623
2.5918057 -0.022702487 0.74254286
2.592478 0 0.74270695
2.667376 0.16375209 0.74019957
2.6680734 0.18726614 0.74081987
2.5985513 0.20527431 0.74676603
2.599231 0.22825348 0.74750727
2.599911 0.25127998 0.74830711
2.6005962 0.27435794 0.74916732
2.6715717 0.30552924 0.74479407
2.6722767 0.32934716 0.74576634
2.6729825 0.35322899 0.74679804
2.6736922 0.37717915 0.74789071
2.6744022 0.40120104 0.74904364
2.6832528 0.69663191 0.74162149
2.6218133 0.98423505 0.74918151
2.6292281 1.2312285 0.7493391
2.6333933 -0.98858219 0.75249052
2.6341634 -0.96263236 0.75027227
2.6407807 -0.73521596 0.75926089
2.6415105 -0.71054846 0.75765216
2.6422381 -0.6859836 0.75610834
2.6429605 -0.66151625 0.754628
2.6436846 -0.63714367 0.75321239
2.6444018 -0.61285955 0.75185835
2.6451173 -0.5886609 0.75056696
2.5762165 -0.54968983 0.75466192
2.5769079 -0.52628177 0.75348514
2.5775983 -0.50294501 0.75237
2.6751161 0.42529923 0.75025815
2.6758313 0.44947734 0.7515341
2.6061256 0.46127501 0.75822151
2.6068289 0.48498553 0.75963295
2.6787198 0.54707474 0.75726593
2.6794467 0.57171613 0.75885803
2.6397753 0.71008164 0.75715441
2.614116 0.7277922 0.75159436
2.614857 0.7527386 0.75367421
2.6155984 0.77782422 0.75582266
2.6870439 0.82475573 0.75193733
2.6878142 0.8508231 0.75420952
2.6885903 0.87705088 0.75655395
2.6893711 0.90344417 0.75897133
2.6403971 0.96491039 0.75204778
2.6225998 1.0108263 0.75190753
2.6233931 1.0376145 0.75471181
2.6951003 1.0933716 0.75068319
2.6959276 1.1213063 0.75362045
2.6967599 1.1494622 0.75663865
2.6976016 1.1778476 0.75974035
2.6638026 1.2190856 0.75612062
2.6300762 1.259831 0.75269705
2.5473115 -1.5375654 0.76796132
2.5481927 -1.5078048 0.76421589
2.6213362 -1.3999075 0.76701695
2.6221907 -1.3709819 0.76372385
2.5540249 -1.3069851 0.76751941
2.5548451 -1.2792917 0.76436907
2.5564296 -1.2522002 0.76153231
2.6286879 -1.147758 0.76733732
2.6294858 -1.1207874 0.76467514
2.5610716 -1.0652163 0.76827633
2.5618379 -1.0393085 0.76574588
2.5625987 -1.0135688 0.76329023
2.5868113 -0.99703246 0.76787144
2.6370816 -0.86024815 0.76829892
2.5691471 -0.78856874 0.76991349
2.5698667 -0.76422465 0.76809359
2.5772729 -0.74191934 0.76833534
2.6261017 -0.48857114 0.76524907
2.649256 -0.44501331 0.76960617
2.6499557 -0.42129916 0.76870799
2.6506581 -0.39763907 0.76787192
2.6513553 -0.37402806 0.76709533
2.6520536 -0.3504633 0.76637977
2.6527481 -0.32694033 0.76572353
2.5836277 -0.2954717 0.76984054
2.5843024 -0.27263898 0.76930052
2.5849781 -0.24983671 0.7688207
2.6555233 -0.23319684 0.76369625
2.6562123 -0.2098293 0.76333654
2.6569054 -0.18648228 0.76303703
2.657593 -0.16315152 0.76279485
2.6582851 -0.139834 0.76261264
2.6589727 -0.11652566 0.76248789
2.6596627 -0.093223237 0.76242226
2.6603525 -0.069923036 0.76241517
2.5910254 -0.045394786 0.7671628
2.5916977 -0.022701539 0.76727355
2.5923703 0 0.76744318
2.6631105 0.023327069 0.7629714
2.6638026 0.046669841 0.7632575
2.6644926 0.070031852 0.76360172
2.6651859 0.093416832 0.7640056
2.6658764 0.1168282 0.76446754
2.6665716 0.14026989 0.76498985
2.6672657 0.16374531 0.76557112
2.6679616 0.18725829 0.76621222
2.6075318 0.50878561 0.76110721
2.6801786 0.59646368 0.76051581
2.6809168 0.62132215 0.76224035
2.6816549 0.64629471 0.76403046
2.682395 0.67138642 0.7658875
2.6831427 0.69660336 0.76781374
2.6901574 0.93000889 0.76146299
2.6909487 0.95675063 0.76402992
2.6984479 1.2064681 0.7629258
2.5986869 -1.5071088 0.77537048
2.6187239 -1.4882307 0.77742958
2.6196032 -1.458524 0.77386814
2.6204715 -1.4290843 0.77039719
2.6152425 -1.2527255 0.7757535
2.6262584 -1.2298379 0.77579594
2.6270745 -1.2022771 0.77289647
2.6278832 -1.1749187 0.77007705
2.6332853 -0.9885416 0.77906656
2.6340523 -0.96259183 0.77676922
2.6348157 -0.93679279 0.77454478
2.6355748 -0.91113925 0.77239215
2.6363299 -0.88562602 0.77031046
2.5684228 -0.81302994 0.77180094
2.6435716 -0.63711643 0.77902883
2.6442909 -0.61283386 0.77762908
2.6450076 -0.58863652 0.77629375
2.5761087 -0.54966682 0.77979612
2.5768006 -0.52625984 0.77858037
2.5774906 -0.50292397 0.77742791
2.6485541 -0.46878472 0.77056557
2.5984414 0.20526564 0.77163696
2.5991235 0.22824405 0.7724036
2.5998034 0.25126958 0.77323008
2.600487 0.27434644 0.77411842
2.6714604 0.30551651 0.77032286
2.6721656 0.32933345 0.77132851
2.6728714 0.35321432 0.77239561
2.6735809 0.37716344 0.77352566
2.6742911 0.40118438 0.77471817
2.6750038 0.42528135 0.77597392
2.6757188 0.44945845 0.77729362
2.6140091 0.72776246 0.77735686
2.6147463 0.75270677 0.77950686
2.6869307 0.82472104 0.77849305
2.6402855 0.96486962 0.77860731
2.6217039 0.98419398 0.77564025
2.6224909 1.0107844 0.77846259
2.6949911 1.0933273 0.77803475
2.6291187 1.2311773 0.77664089
2.5563235 -1.2521483 0.78842735
2.5624917 -1.0135264 0.78945297
2.6406686 -0.73518473 0.78528488
2.6413984 -0.7105183 0.78362107
2.6421275 -0.68595493 0.7820248
2.6428516 -0.66148895 0.78049415
2.6554108 -0.23318695 0.78913093
2.6561036 -0.2098207 0.78876036
2.6567922 -0.18647434 0.78844953
2.6574826 -0.16314474 0.78820014
2.6581724 -0.13982807 0.78801119
2.6588621 -0.11652081 0.78788286
2.6595516 -0.093219347 0.78781509
2.6602397 -0.06992007 0.78780723
2.6629996 0.023326097 0.78838253
2.6636915 0.046667896 0.78867811
2.6643798 0.070028886 0.78903329
2.6650732 0.093412876 0.78945065
2.665766 0.11682335 0.78992867
2.6060174 0.46125588 0.78347456
2.6067171 0.48496473 0.7849319
2.6074219 0.50876421 0.78645587
2.6786053 0.54705143 0.78322136
2.6793354 0.57169241 0.78486896
2.6800687 0.59643918 0.78658402
2.6808035 0.62129593 0.78836668
2.639662 0.71005124 0.78310597
2.6154878 0.77779138 0.78172904
2.6877019 0.85078758 0.78084576
2.688478 0.87701428 0.78327298
2.6892588 0.9034065 0.78577584
2.6900456 0.92997026 0.78835565
2.6232843 1.0375713 0.78136593
2.6958168 1.1212603 0.78107852
2.6966496 1.149415 0.78420687
2.6974912 1.1777995 0.78742158
2.663691 1.2190344 0.78366917
2.6299665 1.2597785 0.78012109
2.5472054 -1.5375013 0.79594147
2.5480864 -1.5077418 0.79205954
2.6203644 -1.4290259 0.79846674
2.6212287 -1.39985 0.79496324
2.6220822 -1.3709252 0.7915498
2.5539191 -1.3069309 0.79462594
2.554739 -1.2792385 0.79136425
2.6277747 -1.1748703 0.79727405
2.6285763 -1.1477093 0.79443657
2.6293731 -1.1207393 0.7916801
2.5609634 -1.0651712 0.79460955
2.5617318 -1.0392655 0.79199302
2.586705 -0.99699146 0.79419166
2.6354649 -0.91110122 0.79886687
2.63622 -0.88558906 0.79671383
2.6369693 -0.86021149 0.79463267
2.5683143 -0.81299561 0.79750568
2.5690386 -0.78853548 0.79555529
2.5697582 -0.76419234 0.79367483
2.577167 -0.74188888 0.79392558
2.6259959 -0.48855144 0.79073715
2.6484408 -0.46876472 0.79622877
2.6491444 -0.44499457 0.7952379
2.6498458 -0.42128167 0.79431027
2.6505463 -0.39762229 0.79344583
2.6512437 -0.37401232 0.79264343
2.6519413 -0.35044846 0.79190391
2.6526365 -0.32692656 0.79122597
2.583518 -0.29545915 0.79478121
2.5841928 -0.27262738 0.79422367
2.5848684 -0.24982612 0.79372835
2.5909171 -0.04539289 0.79201722
2.5915875 -0.022700574 0.79213101
2.5922596 0 0.79230607
2.6664608 0.14026406 0.79046834
2.6671529 0.1637384 0.79106838
2.6678507 0.18725051 0.79173136
2.5983315 0.20525695 0.79663593
2.5990121 0.22823426 0.79742694
2.599694 0.251259 0.79828078
2.6003754 0.27433464 0.79919726
2.6713481 0.30550367 0.79597849
2.6720514 0.32931939 0.79701704
2.6727595 0.35319954 0.79812044
2.6734676 0.37714747 0.79928774
2.6815419 0.64626753 0.79021823
2.6822844 0.67135876 0.79213959
2.6830306 0.69657427 0.79413146
2.6908379 0.95671117 0.79101336
2.6983366 1.2064182 0.79072279
2.5985808 -1.5070473 0.80362129
2.6186152 -1.488169 0.80575478
2.6194921 -1.4584622 0.80206293
2.6151357 -1.2526743 0.80315131
2.6261497 -1.2297869 0.80319482
2.6269653 -1.202227 0.80019277
2.6331766 -0.98850083 0.80577046
2.6339436 -0.96255201 0.80339426
2.6347065 -0.93675399 0.80109346
2.6412878 -0.71048856 0.80971974
2.6420145 -0.68592554 0.80806959
2.6427386 -0.66146064 0.80648804
2.6434619 -0.63708997 0.80497485
2.6441791 -0.61280793 0.80352783
2.644896 -0.58861166 0.80214816
2.5759993 -0.54964346 0.80505925
2.5766904 -0.52623731 0.80380386
2.5773821 -0.50290281 0.80261469
2.6741796 0.40116763 0.80052042
2.6748924 0.42526367 0.80181819
2.6756055 0.44943944 0.80318123
2.6059051 0.461236 0.80885637
2.6784952 0.5470289 0.80930734
2.6395488 0.71002072 0.80918658
2.613898 0.72773153 0.80324638
2.6146355 0.75267482 0.80546808
2.6153791 0.77775908 0.80776495
2.6868181 0.82468647 0.80517673
2.6875916 0.85075259 0.80761069
2.6401737 0.96482873 0.80529451
2.6215947 0.98415291 0.80222625
2.6223817 1.0107423 0.80514544
2.6231737 1.0375277 0.80814791
2.6948781 1.0932814 0.80551219
2.6957037 1.1212133 0.80866361
2.6290104 1.2311265 0.80406982
2.6298573 1.2597262 0.80767256
2.621974 -1.3708686 0.81950521
2.5546324 -1.2791851 0.81848919
2.5562172 -1.2520962 0.81545174
2.6292648 -1.1206932 0.81881636
2.5616229 -1.0392214 0.81837004
2.5623841 -1.0134839 0.81574583
2.5696509 -0.76416045 0.81938821
2.5770609 -0.74185824 0.81964749
2.6405582 -0.73515397 0.81143904
2.6258893 -0.48853159 0.81635624
2.6504326 -0.39760521 0.81915075
2.6511331 -0.3739967 0.81832343
2.6518295 -0.35043368 0.8175596
2.6525259 -0.32691294 0.81686008
2.5834079 -0.29544654 0.81985444
2.5840843 -0.27261597 0.81927979
2.5847583 -0.24981546 0.81876832
2.6552978 -0.23317704 0.81469649
2.6559906 -0.20981178 0.81431389
2.6566806 -0.18646652 0.81399345
2.657371 -0.16313788 0.81373596
2.6580608 -0.1398222 0.81354094
2.6587503 -0.11651591 0.81340843
2.6594386 -0.093215384 0.81333798
2.6601284 -0.06991715 0.81333047
2.5908062 -0.045390945 0.81700307
2.5914781 -0.022699617 0.81712091
2.5921507 0 0.81730163
2.6628864 0.023325106 0.81392384
2.6635778 0.046665903 0.81422889
2.6642685 0.070025966 0.8145963
2.6649616 0.093408972 0.81502712
2.665652 0.11681836 0.81551987
2.6663473 0.14025809 0.81607717
2.6670423 0.16373159 0.81669748
2.6677377 0.18724258 0.81738132
2.6066091 0.48494461 0.81036228
2.607312 0.50874275 0.81193507
2.6792233 0.57166851 0.81100923
2.6799572 0.59641439 0.81278157
2.6806917 0.62127006 0.81462359
2.6814289 0.64624029 0.81653643
2.6821713 0.67133045 0.81852174
2.6883678 0.87697834 0.81012124
2.6891472 0.90336895 0.81270939
2.6899343 0.92993182 0.81537777
2.6907246 0.95667094 0.81812602
2.6965373 1.1493672 0.81190258
2.6973772 1.1777496 0.81523037
2.6982248 1.2063682 0.81864882
2.6635785 1.2189831 0.81134546
2.5471015 -1.5374386 0.82405239
2.5479796 -1.5076786 0.82003242
2.6202545 -1.428966 0.82666582
2.6211188 -1.3997914 0.82303864
2.553813 -1.3068767 0.82186288
2.6268561 -1.202177 0.82762057
2.6276639 -1.1748207 0.82460123
2.6284661 -1.1476612 0.82166672
2.5608573 -1.0651271 0.82107449
2.5865986 -0.99695051 0.82064307
2.6345968 -0.93671501 0.82777429
2.6353545 -0.91106313 0.82547337
2.6361094 -0.88555193 0.82324851
2.6368604 -0.86017597 0.82109851
2.5682077 -0.81296188 0.8233434
2.5689316 -0.78850263 0.82132971
2.6440673 -0.612782 0.82955998
2.6447852 -0.58858699 0.82813591
2.5765824 -0.52621526 0.8291623
2.5772717 -0.50288123 0.8279348
2.6483295 -0.46874499 0.82202464
2.6490328 -0.44497582 0.82100165
2.649734 -0.4212639 0.82004392
2.5982232 0.2052484 0.82176834
2.5989015 0.22822455 0.82258368
2.5995839 0.25124833 0.82346457
2.6002653 0.27432305 0.82441002
2.6712353 0.30549079 0.8217662
2.6719389 0.3293055 0.82283843
2.672647 0.35318467 0.82397759
2.6733556 0.37713164 0.8251828
2.6740656 0.40115055 0.82645488
2.6747787 0.42524558 0.82779473
2.675494 0.44942066 0.82920259
2.6829174 0.69654489 0.82057989
2.6137881 0.72770095 0.82926965
2.6214831 0.98411101 0.82894403
2.598474 -1.5069853 0.83200312
2.6185052 -1.4881066 0.83421129
2.6193838 -1.4584019 0.83038956
2.6150279 -1.2526227 0.83068073
2.6260388 -1.2297349 0.8307249
2.6330657 -0.98845923 0.83260661
2.6338344 -0.96251214 0.83015186
2.6404452 -0.73512256 0.83772707
2.6411784 -0.71045911 0.83595324
2.6419032 -0.68589664 0.83424902
2.642627 -0.66143274 0.83261615
2.6433482 -0.63706261 0.83105332
2.5758908 -0.54962033 0.83045715
2.6565676 -0.18645857 0.8396728
2.6572576 -0.16313091 0.83940709
2.6579473 -0.13981622 0.83920586
2.658637 -0.11651094 0.83906925
2.6593266 -0.09321145 0.83899695
2.6600165 -0.069914207 0.83898932
2.6627746 0.023324125 0.8396014
2.663466 0.046663947 0.83991617
2.6057961 0.46121675 0.83437431
2.6064961 0.48492357 0.83592641
2.6072018 0.50872123 0.83754969
2.6783807 0.54700553 0.83552641
2.6791112 0.57164454 0.83728415
2.6798427 0.59638894 0.83911318
2.6394351 0.70999014 0.83540148
2.6145263 0.75264341 0.83156353
2.6152682 0.77772611 0.83393431
2.6867068 0.82465225 0.83199364
2.6874781 0.85071671 0.83450806
2.6882532 0.87694091 0.83710182
2.6890349 0.90333128 0.83977699
2.6400607 0.96478748 0.83211434
2.6222703 1.0106994 0.8319605
2.6230624 1.0374836 0.83506298
2.6947646 1.0932355 0.8331219
2.695591 1.1211663 0.83638144
2.6964245 1.1493192 0.83973145
2.663466 1.2189316 0.8391549
2.6289024 1.231076 0.83163083
2.6297462 1.259673 0.83535618
2.5478737 -1.507616 0.84814018
2.5537052 -1.3068215 0.84923494
2.5545254 -1.2791317 0.84574926
2.5561101 -1.2520437 0.8426106
2.6283576 -1.1476138 0.84903306
2.629154 -1.1206459 0.84608698
2.5607486 -1.0650818 0.84767503
2.5615158 -1.0391779 0.84488338
2.5622766 -1.0134413 0.84217405
2.5864916 -0.9969092 0.84723043
2.6359992 -0.88551486 0.84991992
2.6367493 -0.86013967 0.8477
2.5680971 -0.81292683 0.84931725
2.5688229 -0.7884692 0.84724069
2.5695431 -0.76412839 0.84523827
2.5769544 -0.74182761 0.84550625
2.6257827 -0.48851174 0.84211177
2.6482174 -0.46872514 0.84795755
2.6489205 -0.44495699 0.84690219
2.6496201 -0.42124575 0.84591371
2.6503224 -0.3975887 0.84499365
2.6510186 -0.37398058 0.84413886
2.6517162 -0.35041869 0.84335124
2.6524129 -0.32689902 0.84262985
2.5832994 -0.29543415 0.84506583
2.5839736 -0.27260429 0.84447283
2.5846474 -0.24980474 0.84394556
2.6551845 -0.23316707 0.84039789
2.6558771 -0.20980281 0.84000319
2.5906966 -0.045389023 0.84212649
2.591367 -0.022698643 0.84224755
2.5920391 0 0.84243369
2.6641548 0.07002297 0.84029448
2.6648481 0.093404986 0.84073901
2.6655405 0.11681347 0.84124792
2.6662316 0.14025201 0.84182155
2.6669281 0.1637246 0.84246194
2.6676221 0.18723448 0.84316689
2.5981121 0.20523964 0.84703803
2.5987909 0.22821483 0.84787852
2.5994706 0.25123739 0.8487857
2.6001549 0.27431139 0.84976107
2.6711206 0.30547765 0.8476904
2.6718266 0.32929167 0.8487972
2.6725326 0.35316953 0.84997165
2.6805782 0.62124372 0.84101516
2.6813169 0.64621329 0.84299046
2.6820581 0.67130208 0.84503973
2.6828029 0.69651514 0.84716415
2.6898205 0.92989242 0.84253371
2.6906116 0.95663071 0.84537375
2.6972649 1.1777006 0.84317344
2.6981111 1.2063174 0.84670866
2.546994 -1.5373737 0.85229731
2.6192749 -1.4583412 0.85885233
2.6201456 -1.4289066 0.85500097
2.6210093 -1.3997328 0.85124922
2.6149192 -1.2525707 0.85834706
2.6259301 -1.229684 0.85839278
2.6267445 -1.2021259 0.85518408
2.6275537 -1.1747714 0.85206473
2.6329525 -0.98841667 0.85958016
2.6337206 -0.96247059 0.85704583
2.6344848 -0.93667513 0.85459173
2.6352441 -0.91102499 0.85221678
2.6425166 -0.66140515 0.85888368
2.6432357 -0.63703549 0.85727084
2.6439543 -0.61275584 0.8557303
2.6446686 -0.58856106 0.85426015
2.5757787 -0.54959637 0.85599327
2.5764716 -0.52619261 0.85465908
2.577163 -0.50286001 0.85339457
2.6732428 0.37711573 0.85121548
2.6739514 0.40113342 0.85252726
2.6746645 0.4252274 0.85390937
2.6753802 0.44940159 0.85536182
2.6136789 0.72767055 0.85543156
2.6144142 0.75261116 0.85779697
2.6865931 0.82461739 0.85894805
2.6399472 0.96474606 0.85907203
2.6213748 0.98407042 0.85580045
2.6221609 1.0106572 0.85891432
2.6287911 1.2310238 0.85932803
2.598367 -1.5069232 0.8605215
2.6183968 -1.4880449 0.86280519
2.5560033 -1.2519914 0.86990935
2.5621669 -1.0133981 0.86874223
2.6403344 -0.73509163 0.86415565
2.6410651 -0.71042866 0.86232507
2.6417913 -0.68586761 0.86056757
2.625675 -0.48849171 0.86800849
2.6516049 -0.35040399 0.86928523
2.6522992 -0.32688501 0.86854082
2.5838623 -0.27259254 0.86980832
2.5845375 -0.24979413 0.86926574
2.6550722 -0.23315722 0.8662408
2.6557631 -0.20979381 0.8658334
2.6564536 -0.18645057 0.86549288
2.6571453 -0.16312401 0.86521947
2.6578331 -0.13981022 0.86501151
2.6585245 -0.11650602 0.86487126
2.6592119 -0.093207441 0.8647961
2.6599038 -0.069911242 0.86478877
2.5905848 -0.045387067 0.86739159
2.5912549 -0.022697661 0.86751604
2.5919268 0 0.86770779
2.6626596 0.023323121 0.86541909
2.6633515 0.046661939 0.86574358
2.6640422 0.070020013 0.86613423
2.6647358 0.093401052 0.86659247
2.6654263 0.11680847 0.86711651
2.6661196 0.14024611 0.86770838
2.6668141 0.1637176 0.86836791
2.6675096 0.18722658 0.86909503
2.6056848 0.46119702 0.86003155
2.6063857 0.48490304 0.86163169
2.6070893 0.5086993 0.86330426
2.6782675 0.54698241 0.86188531
2.6789961 0.57162005 0.86369795
2.6797299 0.59636384 0.86558539
2.6804619 0.62121671 0.86754614
2.6812007 0.64618528 0.8695839
2.6393206 0.70995939 0.86175543
2.6151571 0.77769309 0.86024278
2.6873631 0.85068035 0.86154354
2.6881404 0.87690413 0.86422199
2.6889207 0.90329289 0.86698335
2.6897082 0.92985362 0.86983001
2.6229534 1.0374404 0.86211741
2.6946511 1.0931894 0.86086899
2.6954777 1.1211193 0.86423725
2.6963115 1.149271 0.86769891
2.663352 1.2188793 0.86710238
2.6296365 1.2596204 0.86317801
2.5477672 -1.507553 0.87638772
2.6208994 -1.3996742 0.87960023
2.5535967 -1.3067659 0.87674767
2.5544169 -1.2790773 0.8731491
2.6274416 -1.1747212 0.87966901
2.6282465 -1.1475654 0.87653953
2.629045 -1.1205994 0.87349868
2.5606413 -1.0650373 0.87441754
2.5614064 -1.0391335 0.87153715
2.5863838 -0.99686766 0.87395912
2.6351321 -0.91098619 0.87910199
2.6358857 -0.88547683 0.87673229
2.636636 -0.86010277 0.8744424
2.5679882 -0.81289238 0.87543428
2.568711 -0.78843492 0.87329292
2.5694313 -0.76409513 0.87122887
2.5768468 -0.74179667 0.87150669
2.5770495 -0.5028379 0.87899685
2.648103 -0.46870491 0.87403214
2.6488059 -0.44493771 0.87294424
2.6495092 -0.42122814 0.87192661
2.6502087 -0.39757165 0.8709774
2.6509056 -0.37396461 0.87009645
2.5831878 -0.29542139 0.87041897
2.5979991 0.20523068 0.87245005
2.5986793 0.22820504 0.87331629
2.5993593 0.25122663 0.87425083
2.6000435 0.27429962 0.87525541
2.6710072 0.30546468 0.87375742
2.6717129 0.32927766 0.8748982
2.6724193 0.35315457 0.87610888
2.6731281 0.37709957 0.8773905
2.6738384 0.40111646 0.87874311
2.681942 0.67127305 0.8716979
2.6826892 0.69648564 0.87389016
2.6904998 0.95659095 0.87276226
2.6971507 1.1776508 0.87125516
2.6979995 1.2062675 0.87490886
2.5468881 -1.5373098 0.88068354
2.5982587 -1.5068605 0.88918161
2.6191657 -1.4582804 0.88745677
2.6200361 -1.4288468 0.88347703
2.6148107 -1.2525187 0.8861559
2.6258171 -1.2296312 0.88620174
2.6266329 -1.2020749 0.88288963
2.6328413 -0.98837501 0.88669801
2.6336091 -0.96242982 0.88408351
2.634372 -0.93663508 0.88155162
2.6409535 -0.71039861 0.88884223
2.641679 -0.68583846 0.88703048
2.6424026 -0.6613766 0.88529426
2.6431234 -0.63700843 0.88363242
2.6438415 -0.61272973 0.88204437
2.6445572 -0.58853626 0.88052946
2.5756674 -0.54957265 0.88167435
2.5763602 -0.5261699 0.88030005
2.674552 0.42520952 0.8801679
2.6752658 0.44938236 0.8816644
2.6055715 0.46117699 0.8858335
2.6062739 0.48488227 0.88748223
2.6069775 0.50867748 0.88920492
2.6781542 0.54695922 0.88838887
2.6392057 0.70992851 0.88825399
2.6135643 0.72763866 0.88173538
2.6143048 0.75257963 0.88417524
2.6150472 0.77766037 0.88669616
2.6864777 0.82458192 0.88604516
2.6872516 0.85064507 0.88872385
2.6398337 0.96470451 0.88617301
2.621263 0.9840284 0.88279861
2.6220493 1.0106143 0.88601077
2.6228423 1.0373966 0.88931513
2.6945388 1.0931438 0.88875937
2.6286809 1.2309723 0.88716835
2.6182866 -1.4879823 0.89154094
2.5558946 -1.2519381 0.89735276
2.5612969 -1.0390891 0.89833713
2.5620573 -1.0133547 0.89545625
2.5686011 -0.78840113 0.89949328
2.5693214 -0.7640624 0.89736736
2.5767388 -0.74176556 0.89765429
2.6402228 -0.73506063 0.89072913
2.6255667 -0.48847157 0.89405173
2.6486952 -0.44491911 0.89913505
2.649394 -0.42120984 0.89808542
2.6500936 -0.39755437 0.89710766
2.6507938 -0.37394884 0.89620149
2.6514893 -0.35038871 0.89536458
2.6521854 -0.32687098 0.89459854
2.5830765 -0.29540867 0.89592022
2.5837505 -0.27258074 0.89529151
2.5844262 -0.24978337 0.89473319
2.6549578 -0.23314717 0.89222932
2.6556482 -0.20978473 0.89180964
2.6563408 -0.18644267 0.89145958
2.6570306 -0.16311698 0.89117736
2.6577201 -0.13980427 0.89096367
2.6584096 -0.11650097 0.8908186
2.6590993 -0.093203492 0.890742
2.6597888 -0.069908224 0.89073366
2.5904725 -0.0453851 0.89280391
2.5911443 -0.022696694 0.89293265
2.5918169 0 0.89313012
2.6625454 0.023322118 0.89138311
2.6632366 0.046659928 0.8917172
2.6639273 0.070016995 0.89211959
2.664619 0.093396962 0.89259094
2.665313 0.11680351 0.89313191
2.6660047 0.14024007 0.89374101
2.6667018 0.1637107 0.8944211
2.6673958 0.18721858 0.89516956
2.5978868 0.20522183 0.89801073
2.5985675 0.22819521 0.89890242
2.5992477 0.25121585 0.89986444
2.6708932 0.30545163 0.89997178
2.6788831 0.57159591 0.89025736
2.6796136 0.59633797 0.89220184
2.6803467 0.62119007 0.89422333
2.6810863 0.64615774 0.89632398
2.6818297 0.67124498 0.89850366
2.6880271 0.87686718 0.89148629
2.688808 0.90325499 0.89433491
2.6895936 0.92981404 0.89727086
2.6953645 1.1210722 0.89223647
2.6961968 1.1492221 0.89580977
2.6970365 1.177601 0.89948148
2.6632383 1.2188274 0.89519382
2.6295233 1.2595662 0.89114201
2.5467803 -1.5372448 0.90921539
2.5476592 -1.507489 0.90478027
2.6207888 -1.3996152 0.90809709
2.5534887 -1.3067106 0.90440696
2.5543082 -1.2790228 0.90069461
2.6273308 -1.1746718 0.90742064
2.628134 -1.1475161 0.90419173
2.6289334 -1.1205519 0.90105534
2.5605326 -1.0649921 0.90130639
2.5862753 -0.99682581 0.90083432
2.6342595 -0.93659508 0.9086597
2.6350188 -0.91094702 0.90613443
2.6357746 -0.88543946 0.9036926
2.6365242 -0.86006635 0.90133208
2.5678782 -0.81285763 0.90169895
2.643728 -0.61270338 0.90850723
2.6444438 -0.58851105 0.9069469
2.575556 -0.54954892 0.90750515
2.5762486 -0.52614707 0.9060905
2.5769396 -0.50281644 0.90474975
2.6479919 -0.46868524 0.90025544
2.5999298 0.27428764 0.90089774
2.6715975 0.32926345 0.90114635
2.6723053 0.35313952 0.90239394
2.673012 0.37708318 0.90371323
2.6737235 0.40109921 0.90510684
2.6744368 0.42519122 0.90657437
2.6751509 0.44936305 0.9081158
2.6825752 0.69645602 0.90076274
2.6134536 0.72760785 0.90818948
2.6903834 0.95654964 0.90029502
2.6211505 0.9839862 0.90994477
2.6978834 1.2062156 0.90325296
2.5981505 -1.5067977 0.91798925
2.619055 -1.4582188 0.91620797
2.6199245 -1.428786 0.91209906
2.6147008 -1.2524661 0.91411233
2.6257055 -1.2295789 0.91415912
2.6265213 -1.2020239 0.91074258
2.6327291 -0.98833287 0.91396433
2.6334963 -0.96238858 0.91126925
2.6401088 -0.73502886 0.91745228
2.640837 -0.71036726 0.91550791
2.641567 -0.68580937 0.91364336
2.6422894 -0.66134822 0.91185462
2.6430099 -0.63698107 0.9101429
2.6548429 -0.23313707 0.91836935
2.6555355 -0.20977582 0.91793805
2.6562254 -0.18643455 0.91757691
2.6569154 -0.16310991 0.91728652
2.6576073 -0.13979834 0.91706741
2.6582944 -0.11649593 0.91691726
2.6589835 -0.093199432 0.91683817
2.6596735 -0.069905192 0.91682982
2.5903611 -0.045383148 0.91836923
2.5910335 -0.022695722 0.91850185
2.5917041 0 0.91870433
2.6624317 0.023321122 0.91749889
2.6631231 0.046657939 0.91784286
2.6638119 0.070013963 0.9182564
2.6645038 0.093392923 0.91874164
2.6651981 0.11679847 0.91929847
2.6658895 0.14023401 0.91992539
2.6054611 0.46115741 0.91178697
2.6061604 0.48486114 0.9134829
2.6068625 0.50865501 0.91525555
2.6780362 0.5469352 0.91504109
2.6787655 0.57157081 0.91696572
2.6794977 0.59631217 0.91896909
2.6390901 0.70989734 0.91490227
2.6141922 0.75254726 0.91070193
2.6149337 0.77762663 0.91329807
2.6863654 0.82454747 0.91329217
2.6871362 0.85060847 0.91605216
2.6879115 0.87682945 0.91889954
2.6397185 0.96466243 0.91342235
2.6219373 1.010571 0.91325587
2.6227305 1.0373523 0.91666198
2.6944253 1.0930977 0.91679776
2.6285686 1.2309197 0.91515601
2.6294115 1.2595125 0.9192552
2.618176 -1.4879193 0.92042452
2.554199 -1.2789681 0.92839128
2.5557857 -1.2518848 0.92494673
2.6288204 -1.1205037 0.92876285
2.5604217 -1.0649459 0.92834669
2.5611875 -1.0390447 0.92528903
2.561949 -1.0133117 0.92232209
2.5861669 -0.99678403 0.92786181
2.6364119 -0.8600297 0.92837387
2.5677683 -0.81282282 0.92811686
2.5684912 -0.78836745 0.92584664
2.5692105 -0.7640295 0.92365813
2.5766301 -0.74173427 0.92395431
2.625458 -0.48845136 0.9202469
2.6478748 -0.4686645 0.92662972
2.6485791 -0.44489965 0.92547697
2.649282 -0.42119202 0.92439789
2.6499817 -0.39753762 0.9233917
2.6506774 -0.37393245 0.9224574
2.6513748 -0.3503736 0.92159671
2.652071 -0.32685688 0.92080814
2.5829642 -0.29539579 0.92157435
2.5836403 -0.27256912 0.92092842
2.5843141 -0.24977253 0.92035341
2.6665864 0.16370361 0.92062533
2.6672802 0.18721047 0.92139572
2.5977745 0.20521295 0.92372495
2.5984533 0.22818519 0.92464155
2.5991356 0.25120503 0.92563188
2.599818 0.27427584 0.92669493
2.6707785 0.30543855 0.92633903
2.671483 0.32924935 0.92754811
2.6721876 0.35312396 0.92883098
2.680234 0.6211639 0.92105234
2.6809721 0.6461302 0.92321551
2.6817138 0.67121589 0.92545998
2.6824594 0.69642597 0.92778695
2.6886928 0.9032163 0.92183596
2.6894791 0.92977446 0.92486238
2.690269 0.95650893 0.92797953
2.6952512 1.121025 0.92038459
2.6960821 1.1491733 0.9240703
2.6969223 1.177551 0.92785788
2.6631234 1.2187747 0.9234342
2.5466707 -1.5371785 0.93789822
2.5475512 -1.5074251 0.9333238
2.620677 -1.3995554 0.93674505
2.5533805 -1.3066553 0.93221807
2.6264071 -1.2019717 0.93874747
2.627219 -1.1746217 0.93532419
2.6280231 -1.1474677 0.93199641
2.633384 -0.96234751 0.93860912
2.6341469 -0.93655503 0.93592113
2.6349058 -0.91090798 0.93332005
2.6356606 -0.88540113 0.93080461
2.6421745 -0.66131943 0.93856943
2.6428945 -0.63695329 0.93680745
2.6436145 -0.6126771 0.93512446
2.6443298 -0.58848566 0.93351823
2.5754447 -0.54952514 0.93349123
2.5761368 -0.52612424 0.93203592
2.576827 -0.5027945 0.93065661
2.6728981 0.37706712 0.93019032
2.6736076 0.40108183 0.93162411
2.6743212 0.42517284 0.93313468
2.6750374 0.44934398 0.93472207
2.6053445 0.46113682 0.93789428
2.6060481 0.48484024 0.93964028
2.6133411 0.72757655 0.93479735
2.6140778 0.75251436 0.9373827
2.6210377 0.98394382 0.93724453
2.6977694 1.2061646 0.93174851
2.5980418 -1.5067346 0.94695008
2.6180634 -1.4878554 0.9494611
2.6189442 -1.4581571 0.94511217
2.619813 -1.4287252 0.94087338
2.6145916 -1.2524137 0.94222242
2.6255941 -1.2295268 0.9422701
2.5618384 -1.013268 0.9493438
2.632617 -0.98829079 0.94138515
2.6399949 -0.73499715 0.94433141
2.6407242 -0.71033692 0.94233048
2.6414518 -0.68577945 0.94041049
2.6253476 -0.4884308 0.94659895
2.6498652 -0.39752012 0.94983196
2.6505654 -0.37391663 0.94887251
2.6512606 -0.35035849 0.94798636
2.6519558 -0.32684267 0.94717497
2.5828521 -0.29538298 0.94738728
2.5835276 -0.27255723 0.94672298
2.5842009 -0.24976158 0.94613171
2.6547277 -0.23312695 0.94466639
2.6554203 -0.20976672 0.94422281
2.6561103 -0.18642649 0.94385135
2.6567996 -0.16310281 0.94355237
2.6574914 -0.13979225 0.94332701
2.6581788 -0.11649086 0.94317263
2.6588681 -0.093195379 0.94309133
2.6595576 -0.069902144 0.94308257
2.5902479 -0.045381162 0.94409204
2.59092 -0.022694727 0.94422835
2.5915906 0 0.94443649
2.6623154 0.023320105 0.94377083
2.6630075 0.046655912 0.94412482
2.6636982 0.070010975 0.94455081
2.6643879 0.093388863 0.94504923
2.6650822 0.11679339 0.94562203
2.6657741 0.14022794 0.94626713
2.6664691 0.16369641 0.94698644
2.667165 0.18720238 0.9477796
2.5976617 0.20520404 0.94959807
2.6067507 0.5086332 0.94146389
2.6779218 0.54691178 0.94184989
2.6786492 0.57154596 0.94383031
2.6793821 0.59628642 0.94589269
2.6801164 0.62113667 0.94803619
2.6389737 0.70986611 0.94170588
2.6148195 0.7775926 0.94005495
2.6862488 0.82451171 0.94069213
2.6870198 0.85057163 0.94353491
2.6877959 0.87679172 0.946468
2.6885772 0.9031775 0.94949251
2.6396039 0.96462053 0.94082606
2.6218255 1.0105278 0.94065529
2.622617 1.0373075 0.94416308
2.6943095 1.0930507 0.94498932
2.6951351 1.1209767 0.94868636
2.6284547 1.2308663 0.94329673
2.6293001 1.2594593 0.947523
2.5540898 -1.2789135 0.95624477
2.5556762 -1.2518312 0.9526968
2.6279099 -1.1474183 0.95995778
2.6287081 -1.1204559 0.95662749
2.5603101 -1.0648996 0.95554465
2.5610754 -1.0389992 0.95239717
2.5860562 -0.99674141 0.9550463
2.6355484 -0.88536346 0.95807546
2.6362975 -0.85999238 0.95557278
2.5676563 -0.81278729 0.95469272
2.5683784 -0.78833282 0.95235729
2.5690997 -0.76399648 0.9501068
2.5765209 -0.74170285 0.95041227
2.5753322 -0.54950112 0.9596377
2.5760243 -0.52610129 0.95814168
2.5767145 -0.50277251 0.95672363
2.6477592 -0.46864405 0.95316309
2.6484632 -0.44488016 0.95197713
2.649164 -0.42117324 0.95086646
2.5983405 0.22817528 0.95054036
2.5990212 0.25119397 0.95155782
2.5997059 0.27426401 0.9526515
2.6706619 0.3054252 0.95286399
2.6713684 0.3292352 0.95410836
2.6720736 0.35310888 0.9554283
2.6727803 0.37705049 0.9568252
2.6734934 0.40106472 0.95830142
2.6742058 0.42515448 0.95985472
2.6808548 0.64610189 0.95026284
2.6815987 0.6711871 0.95257396
2.6823444 0.69639611 0.95496917
2.689362 0.92973399 0.95260924
2.6901526 0.95646757 0.9558202
2.6959686 1.1491249 0.95248634
2.6968069 1.1775006 0.95638978
2.6630085 1.2187221 0.95182973
2.5465634 -1.5371138 0.96673948
2.5474446 -1.507362 0.96202469
2.6197014 -1.4286643 0.9698056
2.6205647 -1.3994955 0.96555012
2.5532694 -1.3065984 0.96018571
2.6262951 -1.2019204 0.96691179
2.627104 -1.1745703 0.96338475
2.6325026 -0.98824775 0.96896511
2.633271 -0.96230626 0.96610838
2.6340332 -0.93651468 0.96334141
2.6347935 -0.91086918 0.96066463
2.6406112 -0.71030653 0.96931422
2.6413367 -0.68574959 0.9673385
2.6420605 -0.66129094 0.96544516
2.6427805 -0.63692582 0.96363264
2.6434982 -0.6126501 0.96190065
2.644213 -0.58845961 0.96024829
2.6566851 -0.16309577 0.96998113
2.6573744 -0.13978609 0.96974856
2.6580617 -0.11648573 0.96958989
2.6587539 -0.093191378 0.96950734
2.6594412 -0.069899082 0.96949756
2.5901337 -0.045379162 0.96997809
2.6749182 0.44932398 0.96148628
2.6052315 0.46111682 0.96416432
2.6059318 0.48481858 0.965958
2.606636 0.50861084 0.96783334
2.6778054 0.54688799 0.96881926
2.6388564 0.70983452 0.96867013
2.6132283 0.72754508 0.96156496
2.6139655 0.752482 0.96422458
2.6147094 0.77755988 0.9669742
2.6861322 0.82447588 0.96825182
2.6394877 0.96457809 0.96838915
2.6209252 0.98390162 0.96470374
2.621711 1.0104837 0.9682138
2.6976554 1.2061136 0.96040046
2.5979323 -1.5066712 0.97606969
2.6179512 -1.4877917 0.97865719
2.6188312 -1.4580941 0.97417426
2.6144807 -1.2523607 0.97049123
2.6254802 -1.2294735 0.97053939
2.5609651 -1.0389545 0.97966886
2.5617256 -1.0132235 0.97652721
2.5682676 -0.78829879 0.97903258
2.5689864 -0.76396281 0.97671819
2.5764112 -0.74167126 0.97703373
2.6398818 -0.73496568 0.97137243
2.6252377 -0.48841038 0.97311431
2.647645 -0.46862385 0.97986102
2.6483469 -0.44486061 0.97864109
2.6490471 -0.42115471 0.97749919
2.6497481 -0.39750254 0.9764356
2.6504462 -0.37389982 0.97544849
2.6511447 -0.3503432 0.9745388
2.6518404 -0.32682848 0.97370487
2.5827367 -0.2953698 0.97336322
2.5834119 -0.27254504 0.97268057
2.5840893 -0.24975081 0.97207475
2.6546135 -0.23311692 0.97112644
2.655304 -0.20975754 0.97066975
2.6559937 -0.18641829 0.97028768
2.590806 -0.022693731 0.97011834
2.5914762 0 0.97033203
2.6621993 0.023319086 0.97020513
2.6628911 0.04665387 0.97056901
2.6635818 0.070007913 0.97100705
2.6642718 0.093384787 0.97151947
2.6649661 0.1167883 0.97210836
2.6656575 0.1402218 0.97277129
2.6663525 0.16368926 0.9735108
2.6670487 0.18719423 0.97432631
2.5975482 0.20519508 0.97563553
2.5982275 0.22816534 0.97660387
2.5989079 0.25118303 0.97764915
2.5995927 0.27425209 0.97877282
2.6705461 0.30541196 0.97955334
2.6785326 0.5715211 0.97085631
2.679266 0.59626055 0.97297788
2.6800005 0.62110984 0.97518295
2.6807389 0.646074 0.97747332
2.6814816 0.67115778 0.97985017
2.6869035 0.85053486 0.97117811
2.6876798 0.87675393 0.97419721
2.6884599 0.9031381 0.97730988
2.6225047 1.037263 0.97182506
2.6941929 1.0930035 0.97334027
2.6950197 1.1209288 0.97714871
2.6283424 1.2308137 0.97159743
2.6291866 1.259405 0.97595006
2.553159 -1.3065419 0.98831671
2.5539787 -1.2788578 0.98426008
2.5555668 -1.2517776 0.98060888
2.6277959 -1.1473686 0.98808205
2.6285942 -1.1204073 0.98465419
2.5601981 -1.064853 0.98290581
2.5859461 -0.99669898 0.98239434
2.6346803 -0.91082996 0.98817313
2.6354325 -0.88532448 0.98550886
2.6361825 -0.85995489 0.98293489
2.5675437 -0.81275171 0.98143286
2.6433833 -0.61262345 0.98884302
2.6441002 -0.58843452 0.98714519
2.5752189 -0.54947698 0.98595017
2.5759108 -0.5260781 0.98441303
2.5766006 -0.50275028 0.98295593
2.6712494 0.32922053 0.98083138
2.671958 0.35309359 0.98218954
2.6726654 0.37703428 0.98362589
2.673373 0.40104666 0.9851414
2.6740851 0.42513531 0.98673826
2.6748016 0.44930437 0.98841685
2.6822278 0.69636577 0.98231405
2.6131146 0.72751343 0.98849785
2.6892452 0.92969352 0.98051804
2.6900377 0.95642668 0.98382384
2.6958535 1.1490757 0.98106277
2.6966922 1.1774505 0.98508352
2.6975389 1.2060615 0.98921382
2.6628919 1.2186688 0.98038542
2.5464537 -1.5370475 0.9957431
2.5473347 -1.507297 0.99088687
2.6195912 -1.4286044 0.99890238
2.6204522 -1.3994354 0.99451828
2.6143699 -1.2523075 0.99892503
2.6253686 -1.2294211 0.9989745
2.6261804 -1.2018678 0.99523938
2.6269915 -1.17452 0.99160987
2.6323905 -0.98820573 0.99671179
2.6331582 -0.96226507 0.99377298
2.63392 -0.93647432 0.99092656
2.6397648 -0.73493308 0.9985792
2.6404941 -0.71027499 0.99646336
2.6412225 -0.68571997 0.9944334
2.6419463 -0.66126239 0.99248701
2.6426659 -0.63689816 0.99062359
2.6251264 -0.48838967 0.99979788
2.5826209 -0.29535654 0.99950868
2.5832982 -0.27253303 0.99880868
2.5839717 -0.24973944 0.99818498
2.6544967 -0.23310667 0.99775392
2.6551871 -0.2097483 0.99728459
2.6558766 -0.18641008 0.99689209
2.6565683 -0.16308859 0.9965772
2.6572578 -0.13977996 0.99633837
2.6579452 -0.11648063 0.99617535
2.6586366 -0.093187273 0.99609029
2.6593242 -0.069896013 0.9960804
2.5900192 -0.045377154 0.99603343
2.5906916 -0.022692727 0.99617732
2.591362 0 0.9963969
2.6620822 0.023318062 0.9968074
2.6627741 0.046651825 0.99718124
2.6634643 0.070004828 0.99763113
2.6641543 0.093380667 0.99815756
2.6648469 0.11678308 0.99876201
2.6655409 0.14021568 0.99944413
2.6051166 0.46109647 0.99060076
2.6058183 0.48479748 0.99244422
2.606523 0.50858879 0.99437118
2.6776881 0.54686409 0.99595511
2.6784179 0.57149667 0.99805021
2.6387386 0.70980281 0.99580085
2.6138515 0.75244921 0.99123192
2.6145947 0.77752578 0.99405831
2.686017 0.82444054 0.99597776
2.686789 0.85049862 0.99898809
2.6393714 0.96453559 0.99611783
2.6208103 0.98385847 0.99232709
2.6215985 1.0104405 0.99593854
2.622391 1.0372181 0.9996528
2.5978222 -1.5066073 1.0053539
2.6178408 -1.4877288 1.0080192
2.6187198 -1.4580323 1.0034015
2.5554583 -1.2517245 1.008689
2.5608528 -1.038909 1.0071086
2.561615 -1.0131798 1.0038795
2.585835 -0.99665618 1.0099113
2.5674305 -0.81271583 1.0083427
2.5681539 -0.78826386 1.0058765
2.5688741 -0.76392949 1.0034993
2.5763006 -0.74163944 1.0038242
2.5764871 -0.50272816 1.0093601
2.647526 -0.46860275 1.006727
2.6482315 -0.44484124 1.005475
2.6489317 -0.42113635 1.0043018
2.6496305 -0.3974849 1.0032082
2.6503286 -0.37388322 1.0021942
2.6510272 -0.35032767 1.0012596
2.6517224 -0.32681391 1.0004025
2.6662357 0.16368209 1.0002038
2.6669307 0.18718593 1.0010412
2.5974324 0.20518592 1.0018424
2.5981112 0.22815514 1.0028366
2.5987904 0.25117168 1.0039095
2.599473 0.27423945 1.0050626
2.6704288 0.30539852 1.0064119
2.6711316 0.32920602 1.0077249
2.6718366 0.35307759 1.0091189
2.6791494 0.59623462 1.0002304
2.6798842 0.62108284 1.0024973
2.6806211 0.64604563 1.0048515
2.6813641 0.67112839 1.0072949
2.6821105 0.69633538 1.009828
2.6875637 0.87671596 1.002093
2.6883457 0.90309972 1.0052955
2.6891315 0.92965424 1.0085958
2.6940787 1.0929571 1.0018575
2.6949039 1.1208805 1.0057769
2.6957376 1.1490264 1.0098057
2.6627758 1.2186157 1.0091078
2.6282282 1.2307602 1.0000626
2.6290722 1.2593502 1.0045427
2.5472243 -1.5072318 1.0199172
2.5530481 -1.3064852 1.0166167
2.5538697 -1.2788032 1.0124446
2.6276805 -1.1473182 1.0163747
2.6284802 -1.1203587 1.0128493
2.5600863 -1.0648065 1.0104363
2.6338043 -0.9364332 1.0186815
2.6345618 -0.91078907 1.0158498
2.6353173 -0.88528579 1.0131123
2.6360676 -0.85991734 1.0104662
2.6418276 -0.66123271 1.0196993
2.642549 -0.63686997 1.0177854
2.6432662 -0.61259633 1.0159559
2.6439841 -0.58840871 1.014212
2.575104 -0.54945242 1.012434
2.5757952 -0.5260545 1.0108554
2.6725457 0.37701738 1.0105952
2.6732557 0.40102905 1.0121533
2.6739681 0.42511672 1.0137939
2.605001 0.46107599 1.0172098
2.6057026 0.48477596 1.0191028
2.6129987 0.72748119 1.0156013
2.6137366 0.75241607 1.0184106
2.6899209 0.9563852 1.0119952
2.6965756 1.1773996 1.0139439
2.5463443 -1.5369815 1.0249162
2.5808237 -1.496749 1.0280817
2.5938363 -1.474087 1.0280823
2.6066494 -1.4513117 1.0280827
2.5692523 -1.3433037 1.0277151
2.62607 -1.2018173 1.023739
2.5567207 -1.1972743 1.0288293
2.5634608 -1.1731644 1.027367
2.6268756 -1.1744683 1.0200034
2.5736396 -1.1506666 1.0273676
2.583621 -1.1280806 1.0273682
2.5934041 -1.105408 1.0273687
2.562871 -0.98780513 1.0284327
2.5679348 -0.96400887 1.0270369
2.6330423 -0.9622227 1.0216075
2.5762815 -0.94147998 1.0270375
2.5844307 -0.91887873 1.0270381
2.5923815 -0.89620697 1.0270387
2.6001337 -0.87346655 1.0270394
2.6076863 -0.85065901 1.02704
2.5699289 -0.73980516 1.0282847
2.5723991 -0.71617788 1.0267236
2.6403782 -0.71024382 1.0237856
2.5785749 -0.69361919 1.0267242
2.6411045 -0.68568927 1.0216992
2.584553 -0.67100728 1.0267248
2.5903327 -0.64834386 1.0267255
2.5959136 -0.62563062 1.026726
2.6012957 -0.60286939 1.0267267
2.606478 -0.58006185 1.0267273
2.625015 -0.48836893 1.0266559
2.6293831 -0.46539152 1.0267305
2.6333597 -0.44234309 1.026731
2.6371346 -0.4192608 1.0267316
2.6407075 -0.39614633 1.0267323
2.5797946 -0.38700846 1.0295094
2.6440778 -0.37300143 1.0267329
2.5804739 -0.36402878 1.0284685
2.5818195 -0.34118199 1.0277742
2.6472449 -0.34982786 1.0267335
2.5831177 -0.31835866 1.0271416
2.5825071 -0.29534355 1.0258307
2.5831821 -0.27252078 1.0251113
2.5838568 -0.24972832 1.0244716
2.5908916 -0.22752115 1.0264313
2.5927868 -0.20481893 1.026432
2.6550677 -0.20973888 1.0240726
2.5944829 -0.18210098 1.0264326
2.6557615 -0.18640199 1.0236712
2.6564507 -0.16308138 1.0233469
2.5959797 -0.15936902 1.0264331
2.5972774 -0.13662481 1.0264337
2.6571403 -0.13977377 1.0231017
2.5983758 -0.11387008 1.0264343
2.6578271 -0.11647545 1.0229341
2.5992758 -0.091106631 1.0264351
2.658519 -0.093183145 1.0228469
2.5999751 -0.068336114 1.0264355
2.5899024 -0.045375112 1.0222628
2.5905745 -0.022691701 1.0224104
2.5912466 0 1.0226365
2.6007798 0.022781093 1.0264381
2.6004822 0.045560468 1.0264388
2.6626542 0.046649721 1.0239663
2.5999844 0.06833636 1.0264393
2.663347 0.070001744 1.0244293
2.5992877 0.091107048 1.0264399
2.6640365 0.09337654 1.0249698
2.5983915 0.11387078 1.0264405
2.6647298 0.11677795 1.0255908
2.597296 0.13662578 1.0264411
2.6654236 0.14020951 1.0262911
2.59741 0.15945683 1.0269988
2.665278 0.16362329 1.0267475
2.5974755 0.18231104 1.0276166
2.5973141 0.20517658 1.0282242
2.597997 0.22814511 1.0292463
2.6530128 0.30340677 1.0267513
2.6502552 0.32663307 1.026752
2.6472943 0.34983435 1.0267526
2.6441298 0.37300876 1.0267532
2.6407633 0.39615467 1.0267539
2.6371932 0.41927013 1.0267545
2.6334214 0.44235349 1.0267551
2.606406 0.50856596 1.021081
2.6163161 0.53433007 1.0267575
2.611537 0.55722618 1.0267581
2.6782987 0.57147121 1.0254153
2.6094248 0.58071768 1.0278881
2.6775291 0.59587401 1.0270796
2.6092532 0.60471362 1.0298675
2.6722083 0.61930394 1.0270801
2.6666834 0.64268655 1.0270809
2.660953 0.66601968 1.0270814
2.6550195 0.68930197 1.0270822
2.6386199 0.70977092 1.023104
2.6144788 0.77749133 1.0213143
2.6223028 0.8048842 1.0270852
