# .PCD v0.7 - Point Cloud Data file format
VERSION 0.7
FIELDS x y z
SIZE 4 4 4
TYPE F F F
COUNT 1 1 1
WIDTH 108
HEIGHT 1
VIEWPOINT 0 0 0 1 0 0 0
POINTS 108
DATA ascii
4.1473293 0.99953103 -0.65573817
4.1384149 1.0358189 -0.65573806
4.1291828 1.0720274 -0.655738
4.1196342 1.1081536 -0.65573788
4.1097689 1.1441948 -0.65573776
4.0995889 1.1801482 -0.6557377
4.0890937 1.216011 -0.65573758
4.0782852 1.2517805 -0.65573746
4.0671639 1.287454 -0.65573734
4.0557303 1.3230287 -0.65573728
4.0439858 1.3585018 -0.65573716
4.0319309 1.3938707 -0.65573704
4.0195665 1.4291327 -0.65573692
4.0068941 1.464285 -0.6557368
3.9939139 1.4993249 -0.65573674
3.9806275 1.5342498 -0.65573663
3.9670355 1.569057 -0.65573651
3.9531395 1.6037438 -0.65573639
3.9389398 1.6383076 -0.65573627
3.9244382 1.6727456 -0.65573615
3.9096353 1.7070552 -0.65573603
3.8945327 1.7412339 -0.65573591
3.8791311 1.7752789 -0.65573579
3.8634319 1.8091879 -0.65573567
3.8474364 1.8429579 -0.65573555
3.8311455 1.8765866 -0.65573543
3.8145609 1.9100711 -0.65573531
3.7976835 1.9434092 -0.65573519
3.780515 1.9765983 -0.65573508
3.763056 2.0096354 -0.65573496
3.7453086 2.0425186 -0.65573484
3.7272739 2.0752451 -0.65573472
3.7089531 2.1078122 -0.6557346
3.6903479 2.1402175 -0.65573448
3.6714594 2.1724589 -0.6557343
3.6522892 2.2045333 -0.65573418
3.632839 2.2364388 -0.65573406
3.6131098 2.2681725 -0.65573394
3.5931036 2.2997322 -0.65573382
3.5728219 2.3311155 -0.6557337
3.5522659 2.3623199 -0.65573353
3.5314372 2.3933432 -0.65573341
3.5103378 2.4241827 -0.65573329
3.4889691 2.4548364 -0.65573317
3.4673326 2.4853015 -0.65573299
3.44543 2.5155759 -0.65573287
3.4232633 2.5456574 -0.65573275
3.4008338 2.5755436 -0.65573263
3.3781435 2.6052322 -0.65573245
3.3551941 2.6347208 -0.65573233
3.3319871 2.6640072 -0.65573221
3.3085246 2.6930895 -0.65573204
3.2848082 2.7219648 -0.65573192
3.2608397 2.7506316 -0.6557318
3.2366211 2.7790871 -0.65573162
3.2121544 2.8073294 -0.6557315
3.1874411 2.8353562 -0.65573132
3.1624832 2.8631656 -0.6557312
3.1372828 2.8907554 -0.65573108
3.1118417 2.9181232 -0.6557309
3.0861616 2.9452674 -0.65573078
3.060245 2.9721854 -0.65573061
3.0340936 2.9988754 -0.65573049
3.0077095 3.0253353 -0.65573031
2.9810946 3.051563 -0.65573019
2.9542508 3.0775566 -0.65573001
2.9271805 3.1033142 -0.65572989
2.8998857 3.1288335 -0.65572977
2.8723683 3.1541131 -0.65572959
2.8446307 3.1791503 -0.65572947
2.8166747 3.2039437 -0.65572929
2.7885027 3.2284913 -0.65572917
2.7601168 3.2527912 -0.655729
2.731519 3.2768416 -0.65572882
2.7027118 3.3006403 -0.6557287
2.6736972 3.3241861 -0.65572852
2.6444776 3.3474767 -0.6557284
2.6150551 3.3705106 -0.65572822
2.5854318 3.3932858 -0.6557281
2.5556102 3.4158006 -0.65572792
2.5255926 3.4380531 -0.6557278
2.4953814 3.4600422 -0.65572762
2.4649785 3.4817657 -0.65572751
2.4343865 3.503222 -0.65572733
2.4036078 3.5244095 -0.65572715
2.3726449 3.5453267 -0.65572703
2.3414998 3.5659719 -0.65572685
2.3101752 3.5863435 -0.65572673
2.2786732 3.6064398 -0.65572655
2.2469964 3.6262596 -0.65572637
2.2151473 3.6458011 -0.65572625
2.1831284 3.6650627 -0.65572608
2.1509418 3.6840434 -0.65572596
2.1185901 3.7027411 -0.65572578
2.0860763 3.7211549 -0.6557256
2.0534019 3.7392833 -0.65572548
2.0205705 3.7571247 -0.6557253
1.9875839 3.7746778 -0.65572518
1.9544448 3.7919414 -0.655725
1.9211557 3.8089139 -0.65572482
1.8877193 3.8255944 -0.6557247
1.854138 3.8419812 -0.65572453
1.8204147 3.8580732 -0.65572435
1.7865515 3.8738694 -0.65572423
1.7525513 3.8893683 -0.65572405
1.7184167 3.9045687 -0.65572393
1.6841503 3.9194696 -0.65572375
1.6497548 3.9340699 -0.65572357
