# .PCD v0.7 - Point Cloud Data file format
VERSION 0.7
FIELDS x y z
SIZE 4 4 4
TYPE F F F
COUNT 1 1 1
WIDTH 105
HEIGHT 1
VIEWPOINT 0 0 0 1 0 0 0
POINTS 105
DATA ascii
4.3784957 1.1367545 -0.65460461
4.3683701 1.1750619 -0.65460449
4.3579097 1.2132792 -0.65460443
4.3471146 1.2514035 -0.65460432
4.3359861 1.2894316 -0.6546042
4.3245249 1.3273607 -0.65460408
4.3127317 1.3651881 -0.65460396
4.3006082 1.4029107 -0.65460384
4.2881541 1.4405257 -0.65460378
4.2753716 1.4780301 -0.65460366
4.2622604 1.515421 -0.65460354
4.2488227 1.5526958 -0.65460342
4.2350588 1.5898514 -0.6546033
4.2209702 1.6268849 -0.65460318
4.2065578 1.6637937 -0.65460306
4.1918225 1.7005748 -0.65460294
4.1767654 1.7372254 -0.65460283
4.1613884 1.7737427 -0.65460271
4.1456914 1.8101239 -0.65460259
4.1296768 1.8463662 -0.65460247
4.1133451 1.8824668 -0.65460235
4.0966983 1.9184231 -0.65460223
4.0797367 1.954232 -0.65460205
4.0624623 1.9898911 -0.65460193
4.0448766 2.0253973 -0.65460181
4.0269799 2.0607483 -0.65460169
4.0087748 2.0959413 -0.65460157
3.9902618 2.1309731 -0.65460145
3.9714427 2.1658418 -0.65460128
3.9523189 2.2005441 -0.65460116
3.9328918 2.2350776 -0.65460104
3.9131632 2.2694395 -0.65460092
3.8931344 2.3036273 -0.65460074
3.8728068 2.3376384 -0.65460062
3.8521819 2.3714702 -0.6546005
3.8312616 2.4051199 -0.65460038
3.8100474 2.4385853 -0.6546002
3.7885411 2.4718633 -0.65460008
3.7667439 2.5049517 -0.65459996
3.7446578 2.537848 -0.65459979
3.7222841 2.5705495 -0.65459967
3.6996253 2.6030538 -0.65459949
3.6766822 2.6353583 -0.65459937
3.6534574 2.6674607 -0.65459925
3.6299522 2.6993585 -0.65459907
3.6061685 2.7310491 -0.65459895
3.582108 2.7625301 -0.65459877
3.5577729 2.7937992 -0.65459865
3.5331647 2.8248539 -0.65459847
3.5082855 2.8556919 -0.65459836
3.4831371 2.8863106 -0.65459818
3.4577215 2.916708 -0.65459806
3.4320407 2.9468818 -0.65459788
3.4060965 2.9768293 -0.65459776
3.3798912 3.0065484 -0.65459758
3.3534262 3.0360367 -0.65459746
3.3267043 3.0652921 -0.65459728
3.299727 3.0943124 -0.65459716
3.2724965 3.1230953 -0.65459698
3.2450151 3.1516385 -0.65459687
3.2172847 3.17994 -0.65459669
3.1893075 3.2079973 -0.65459651
3.1610854 3.2358088 -0.65459639
3.132621 3.2633717 -0.65459621
3.1039162 3.2906845 -0.65459609
3.0749733 3.3177445 -0.65459591
3.0457945 3.3445501 -0.65459573
3.0163822 3.3710992 -0.65459561
2.9867382 3.3973894 -0.65459543
2.9568653 3.4234192 -0.65459526
2.9267654 3.4491861 -0.65459514
2.896441 3.4746885 -0.65459496
2.8658943 3.4999244 -0.65459478
2.8351278 3.5248916 -0.65459466
2.8041439 3.5495884 -0.65459448
2.7729449 3.5740128 -0.6545943
2.741533 3.5981631 -0.65459418
2.7099109 3.6220372 -0.654594
2.678081 3.6456335 -0.65459383
2.6460454 3.6689501 -0.65459365
2.613807 3.6919851 -0.65459353
2.581368 3.7147367 -0.65459335
2.5487311 3.7372036 -0.65459317
2.5158985 3.7593837 -0.65459305
2.482873 3.7812753 -0.65459287
2.449657 3.8028767 -0.65459269
2.4162529 3.8241863 -0.65459251
2.3826635 3.8452027 -0.65459239
2.3488915 3.8659239 -0.65459222
2.3149393 3.8863485 -0.65459204
2.2808094 3.9064751 -0.65459186
2.2465045 3.9263017 -0.65459174
2.2120273 3.9458272 -0.65459156
2.1773803 3.96505 -0.65459138
2.1425664 3.9839687 -0.6545912
2.1075881 4.0025816 -0.65459102
2.0724483 4.0208874 -0.6545909
2.0371492 4.0388846 -0.65459073
2.001694 4.056572 -0.65459055
1.9660852 4.0739484 -0.65459037
1.9303256 4.091012 -0.65459025
1.8944179 4.1077614 -0.65459007
1.8583649 4.1241961 -0.65458989
1.8221694 4.1403146 -0.65458971
1.7858341 4.1561151 -0.65458959
