# .PCD v0.7 - Point Cloud Data file format
VERSION 0.7
FIELDS x y z
SIZE 4 4 4
TYPE F F F
COUNT 1 1 1
WIDTH 105
HEIGHT 1
VIEWPOINT 0 0 0 1 0 0 0
POINTS 105
DATA ascii
1.684185 -3.9195504 -0.65573728
1.7184521 -3.904649 -0.6557374
1.7525872 -3.8894479 -0.65573752
1.786588 -3.8739483 -0.65573758
1.8204516 -3.8581517 -0.6557377
1.8541756 -3.8420589 -0.65573782
1.8877573 -3.8256714 -0.65573788
1.9211942 -3.8089905 -0.655738
1.9544837 -3.792017 -0.65573812
1.9876233 -3.7747529 -0.65573817
2.0206103 -3.757199 -0.65573829
2.0534425 -3.739357 -0.65573835
2.086117 -3.7212279 -0.65573847
2.1186316 -3.7028134 -0.65573859
2.1509836 -3.6841147 -0.65573865
2.1831703 -3.6651335 -0.65573877
2.2151899 -3.6458709 -0.65573883
2.2470393 -3.6263287 -0.65573895
2.2787163 -3.6065083 -0.65573901
2.3102188 -3.5864112 -0.65573907
2.3415437 -3.5660388 -0.65573919
2.3726892 -3.545393 -0.65573925
2.4036524 -3.5244751 -0.65573937
2.4344316 -3.5032866 -0.65573943
2.4650238 -3.4818296 -0.65573949
2.4954267 -3.4601052 -0.65573961
2.5256383 -3.4381156 -0.65573967
2.5556562 -3.4158618 -0.65573972
2.5854781 -3.3933463 -0.65573978
2.6151013 -3.3705704 -0.6557399
2.6445241 -3.3475358 -0.65573996
2.673744 -3.3242443 -0.65574002
2.7027588 -3.3006978 -0.65574008
2.7315662 -3.2768981 -0.65574014
2.760164 -3.252847 -0.6557402
2.7885501 -3.2285461 -0.65574032
2.8167222 -3.2039979 -0.65574038
2.8446784 -3.1792035 -0.65574044
2.872416 -3.1541653 -0.6557405
2.8999336 -3.1288853 -0.65574056
2.9272285 -3.1033649 -0.65574062
2.9542987 -3.0776067 -0.65574068
2.9811423 -3.0516121 -0.65574074
3.0077574 -3.0253835 -0.6557408
3.0341415 -2.9989228 -0.65574086
3.060293 -2.9722319 -0.65574086
3.0862095 -2.945313 -0.65574092
3.1118894 -2.9181681 -0.65574098
3.1373305 -2.8907995 -0.65574104
3.1625309 -2.8632088 -0.6557411
3.1874886 -2.8353987 -0.65574116
3.2122018 -2.8073709 -0.65574116
3.2366686 -2.7791276 -0.65574121
3.2608869 -2.7506714 -0.65574127
3.2848551 -2.7220039 -0.65574133
3.3085713 -2.6931276 -0.65574133
3.3320339 -2.6640446 -0.65574139
3.3552406 -2.6347573 -0.65574145
3.3781898 -2.6052678 -0.65574145
3.4008799 -2.5755785 -0.65574151
3.4233091 -2.5456915 -0.65574151
3.4454758 -2.5156093 -0.65574157
3.4673779 -2.4853339 -0.65574157
3.4890141 -2.4548681 -0.65574163
3.5103827 -2.4242136 -0.65574163
3.5314817 -2.3933733 -0.65574169
3.55231 -2.3623495 -0.65574169
3.5728657 -2.3311441 -0.65574175
3.5931473 -2.2997601 -0.65574175
3.613153 -2.2681997 -0.65574175
3.6328816 -2.2364652 -0.65574181
3.6523316 -2.2045591 -0.65574181
3.6715014 -2.1724837 -0.65574181
3.6903894 -2.1402419 -0.65574187
3.7089944 -2.1078355 -0.65574187
3.7273147 -2.0752678 -0.65574187
3.7453489 -2.0425406 -0.65574187
3.7630959 -2.0096569 -0.65574187
3.7805543 -1.9766188 -0.65574193
3.7977223 -1.9434291 -0.65574193
3.8145993 -1.9100903 -0.65574193
3.8311834 -1.876605 -0.65574193
3.8474736 -1.8429757 -0.65574193
3.8634686 -1.8092051 -0.65574193
3.8791673 -1.7752956 -0.65574193
3.8945684 -1.7412498 -0.65574193
3.9096706 -1.7070706 -0.65574193
3.9244728 -1.6727602 -0.65574193
3.9389739 -1.6383216 -0.65574193
3.9531729 -1.6037574 -0.65574193
3.9670684 -1.56907 -0.65574193
3.9806597 -1.5342622 -0.65574193
3.9939456 -1.4993367 -0.65574187
4.0069251 -1.4642962 -0.65574187
4.0195971 -1.4291434 -0.65574187
4.0319605 -1.393881 -0.65574187
4.0440149 -1.3585116 -0.65574187
4.0557585 -1.3230379 -0.65574181
4.0671916 -1.2874627 -0.65574181
4.0783124 -1.2517887 -0.65574181
4.0891199 -1.2160188 -0.65574175
4.0996141 -1.1801555 -0.65574175
4.1097937 -1.1442018 -0.65574175
4.119658 -1.1081601 -0.65574169
4.1292062 -1.0720335 -0.65574169
