# .PCD v0.7 - Point Cloud Data file format
VERSION 0.7
FIELDS x y z
SIZE 4 4 4
TYPE F F F
COUNT 1 1 1
WIDTH 105
HEIGHT 1
VIEWPOINT 0 0 0 1 0 0 0
POINTS 105
DATA ascii
1.5932208 -3.7078521 -0.65675116
1.6256369 -3.6937554 -0.65675128
1.6579285 -3.6793754 -0.65675133
1.6900927 -3.6647129 -0.65675145
1.7221273 -3.6497695 -0.65675157
1.7540299 -3.6345458 -0.65675163
1.7857978 -3.6190434 -0.65675175
1.8174287 -3.6032634 -0.65675181
1.8489202 -3.5872066 -0.65675193
1.8802699 -3.5708749 -0.65675199
1.9114753 -3.5542691 -0.65675211
1.9425341 -3.5373907 -0.65675217
1.9734439 -3.5202408 -0.65675229
2.0042021 -3.5028207 -0.65675235
2.0348067 -3.4851322 -0.65675247
2.0652552 -3.467176 -0.65675253
2.0955453 -3.4489539 -0.65675265
2.1256745 -3.4304671 -0.65675271
2.1556406 -3.4117172 -0.65675277
2.1854415 -3.3927054 -0.65675288
2.2150745 -3.3734336 -0.65675294
2.2445378 -3.3539026 -0.656753
2.2738287 -3.3341146 -0.65675312
2.3029454 -3.3140705 -0.65675318
2.3318851 -3.2937722 -0.65675324
2.360646 -3.2732213 -0.6567533
2.389226 -3.2524192 -0.65675342
2.4176226 -3.2313676 -0.65675348
2.4458334 -3.210068 -0.65675354
2.4738569 -3.1885221 -0.6567536
2.5016906 -3.1667318 -0.65675366
2.5293322 -3.1446984 -0.65675372
2.5567799 -3.1224236 -0.65675384
2.5840313 -3.0999093 -0.6567539
2.6110845 -3.077157 -0.65675396
2.6379375 -3.0541689 -0.65675402
2.664588 -3.0309463 -0.65675408
2.6910341 -3.0074911 -0.65675414
2.7172737 -2.9838054 -0.6567542
2.7433047 -2.9598906 -0.65675426
2.7691255 -2.9357486 -0.65675431
2.7947338 -2.9113815 -0.65675437
2.8201275 -2.886791 -0.65675443
2.845305 -2.861979 -0.65675443
2.8702641 -2.8369474 -0.65675449
2.8950031 -2.8116982 -0.65675455
2.9195199 -2.7862332 -0.65675461
2.9438126 -2.7605546 -0.65675467
2.9678795 -2.734664 -0.65675473
2.991719 -2.7085636 -0.65675473
3.0153286 -2.6822555 -0.65675479
3.038707 -2.6557415 -0.65675485
3.0618522 -2.6290238 -0.65675491
3.0847626 -2.6021042 -0.65675491
3.1074364 -2.5749853 -0.65675497
3.1298716 -2.5476685 -0.65675503
3.1520667 -2.5201564 -0.65675503
3.1740201 -2.492451 -0.65675509
3.1957297 -2.4645543 -0.65675509
3.2171943 -2.4364684 -0.65675515
3.2384121 -2.4081957 -0.65675515
3.2593815 -2.3797381 -0.65675521
3.2801006 -2.3510981 -0.65675521
3.3005683 -2.3222775 -0.65675527
3.3207827 -2.2932789 -0.65675527
3.3407421 -2.2641044 -0.65675533
3.3604455 -2.234756 -0.65675533
3.3798909 -2.2052362 -0.65675539
3.3990769 -2.1755474 -0.65675539
3.4180024 -2.1456914 -0.65675539
3.4366653 -2.1156709 -0.65675545
3.4550648 -2.0854881 -0.65675545
3.4731991 -2.0551453 -0.65675545
3.4910669 -2.0246446 -0.65675545
3.508667 -1.9939889 -0.65675551
3.5259979 -1.9631799 -0.65675551
3.5430582 -1.9322205 -0.65675551
3.5598464 -1.9011128 -0.65675551
3.5763619 -1.8698592 -0.65675551
3.5926027 -1.8384621 -0.65675557
3.6085682 -1.8069241 -0.65675557
3.6242566 -1.7752473 -0.65675557
3.6396668 -1.7434344 -0.65675557
3.654798 -1.7114877 -0.65675557
3.6696486 -1.6794096 -0.65675557
3.6842179 -1.6472028 -0.65675557
3.6985044 -1.6148696 -0.65675557
3.7125072 -1.5824125 -0.65675557
3.7262251 -1.5498339 -0.65675557
3.7396572 -1.5171365 -0.65675557
3.7528021 -1.4843225 -0.65675557
3.7656593 -1.4513948 -0.65675551
3.7782276 -1.4183557 -0.65675551
3.7905059 -1.3852078 -0.65675551
3.8024936 -1.3519536 -0.65675551
3.8141894 -1.3185958 -0.65675551
3.8255925 -1.2851367 -0.65675545
3.8367021 -1.2515789 -0.65675545
3.8475175 -1.2179253 -0.65675545
3.8580375 -1.1841781 -0.65675545
3.8682616 -1.1503401 -0.65675539
3.8781891 -1.1164138 -0.65675539
3.8878188 -1.082402 -0.65675539
3.8971503 -1.0483071 -0.65675533
3.9061828 -1.0141317 -0.65675533
