# .PCD v0.7 - Point Cloud Data file format
VERSION 0.7
FIELDS x y z
SIZE 4 4 4
TYPE F F F
COUNT 1 1 1
WIDTH 105
HEIGHT 1
VIEWPOINT 0 0 0 1 0 0 0
POINTS 105
DATA ascii
1.5113567 -3.5173326 -0.65766358
1.5421073 -3.5039601 -0.6576637
1.5727396 -3.490319 -0.65766376
1.6032511 -3.4764099 -0.65766388
1.6336397 -3.4622343 -0.65766394
1.663903 -3.4477928 -0.65766406
1.6940386 -3.4330869 -0.65766412
1.7240442 -3.4181178 -0.65766424
1.7539176 -3.4028862 -0.6576643
1.7836565 -3.3873935 -0.65766442
1.8132584 -3.3716409 -0.65766448
1.8427212 -3.3556297 -0.6576646
1.8720428 -3.339361 -0.65766466
1.9012207 -3.3228362 -0.65766472
1.9302527 -3.3060563 -0.65766484
1.9591366 -3.2890227 -0.6576649
1.9878702 -3.2717369 -0.65766501
2.0164514 -3.2542 -0.65766507
2.0448778 -3.2364135 -0.65766513
2.0731473 -3.2183785 -0.65766519
2.1012578 -3.2000968 -0.65766531
2.1292069 -3.1815696 -0.65766537
2.1569929 -3.1627982 -0.65766543
2.1846135 -3.143784 -0.65766549
2.2120662 -3.1245289 -0.65766561
2.2393494 -3.1050339 -0.65766567
2.2664607 -3.0853004 -0.65766573
2.2933981 -3.0653305 -0.65766579
2.3201594 -3.0451255 -0.65766585
2.3467431 -3.0246866 -0.65766591
2.3731465 -3.0040159 -0.65766597
2.3993678 -2.9831145 -0.65766603
2.425405 -2.9619844 -0.65766615
2.4512563 -2.9406269 -0.65766621
2.4769194 -2.9190438 -0.65766627
2.5023925 -2.8972368 -0.65766633
2.5276737 -2.8752074 -0.65766639
2.5527608 -2.8529575 -0.65766644
2.5776522 -2.8304887 -0.65766644
2.6023457 -2.8078027 -0.6576665
2.6268396 -2.7849011 -0.65766656
2.6511321 -2.7617862 -0.65766662
2.675221 -2.7384591 -0.65766668
2.6991048 -2.7149222 -0.65766674
2.7227814 -2.6911767 -0.6576668
2.7462492 -2.6672249 -0.65766686
2.7695062 -2.6430683 -0.65766686
2.7925508 -2.6187091 -0.65766692
2.8153811 -2.5941489 -0.65766698
2.8379955 -2.5693896 -0.65766704
2.8603921 -2.5444331 -0.65766704
2.8825691 -2.5192816 -0.6576671
2.904525 -2.4939365 -0.65766716
2.9262583 -2.4684005 -0.65766716
2.9477668 -2.4426746 -0.65766722
2.9690495 -2.4167616 -0.65766728
2.990104 -2.3906631 -0.65766728
3.0109293 -2.3643813 -0.65766734
3.0315235 -2.337918 -0.65766734
3.0518851 -2.3112752 -0.6576674
3.0720127 -2.2844553 -0.6576674
3.0919046 -2.2574601 -0.65766746
3.1115592 -2.2302916 -0.65766746
3.130975 -2.2029519 -0.65766752
3.1501508 -2.1754434 -0.65766752
3.1690848 -2.1477678 -0.65766758
3.1877756 -2.1199274 -0.65766758
3.2062218 -2.0919247 -0.65766758
3.224422 -2.063761 -0.65766764
3.2423749 -2.0354393 -0.65766764
3.2600791 -2.0069613 -0.65766764
3.2775331 -1.9783293 -0.6576677
3.2947357 -1.9495456 -0.6576677
3.3116853 -1.9206123 -0.6576677
3.3283811 -1.8915316 -0.6576677
3.3448212 -1.8623058 -0.6576677
3.3610051 -1.8329371 -0.65766776
3.3769307 -1.8034278 -0.65766776
3.3925974 -1.7737801 -0.65766776
3.4080038 -1.7439964 -0.65766776
3.4231489 -1.7140788 -0.65766776
3.4380312 -1.6840297 -0.65766776
3.4526498 -1.6538514 -0.65766776
3.4670033 -1.6235462 -0.65766776
3.481091 -1.5931165 -0.65766776
3.4949117 -1.5625645 -0.65766776
3.5084641 -1.5318927 -0.65766776
3.5217474 -1.5011033 -0.65766776
3.5347602 -1.4701988 -0.65766776
3.547502 -1.4391813 -0.65766776
3.5599718 -1.4080535 -0.65766776
3.5721684 -1.3768177 -0.65766776
3.5840907 -1.3454763 -0.65766776
3.5957382 -1.3140316 -0.65766776
3.6071098 -1.2824862 -0.6576677
3.6182046 -1.2508422 -0.6576677
3.6290219 -1.2191024 -0.6576677
3.6395607 -1.1872691 -0.6576677
3.6498203 -1.1553446 -0.65766764
3.6597998 -1.1233314 -0.65766764
3.6694987 -1.0912322 -0.65766764
3.678916 -1.0590491 -0.65766764
3.6880507 -1.0267849 -0.65766758
3.6969028 -0.99444187 -0.65766758
3.7054713 -0.96202248 -0.65766752
