# .PCD v0.7 - Point Cloud Data file format
VERSION 0.7
FIELDS x y z
SIZE 4 4 4
TYPE F F F
COUNT 1 1 1
WIDTH 70
HEIGHT 1
VIEWPOINT 0 0 0 1 0 0 0
POINTS 70
DATA ascii
3.1683733 -0.94220799 -0.36000314
3.1697028 -0.912462 -0.35923228
3.1711216 -0.8828674 -0.35850289
3.1036425 -0.95262569 -0.32467917
3.1060481 -0.92367375 -0.324072
3.1084778 -0.89483726 -0.3234953
3.1151774 -0.86729205 -0.3233895
3.2016637 -0.8612259 -0.33157188
3.0768712 -0.94440848 -0.2932747
3.0752242 -0.91450733 -0.29234299
3.0809388 -0.88690954 -0.29213649
3.0948703 -0.86163837 -0.29273063
3.1192846 -0.83906645 -0.29433343
3.2017164 -0.8312366 -0.30141303
3.1282263 -0.99023485 -0.26987097
3.1115124 -0.95504123 -0.2676971
3.1006384 -0.92206502 -0.26605648
3.1006398 -0.89258093 -0.26537555
3.1141474 -0.86700529 -0.26587144
3.1415148 -0.84504622 -0.26756573
3.118619 -0.98719364 -0.24005955
3.0997314 -0.95142525 -0.23795505
3.0999064 -0.92184734 -0.2373395
3.1158662 -0.98632228 -0.21092808
3.0936587 -0.94956124 -0.20885368
3.0905216 -0.91905648 -0.20809044
3.0971968 -0.89158976 -0.20800607
3.113028 -0.86669362 -0.20855142
3.1423776 -0.84527832 -0.21001357
3.0953131 -0.95006907 -0.18034744
3.0898685 -0.91886228 -0.17955437
3.0952444 -0.89102769 -0.17940634
3.1097002 -0.86576712 -0.17979778
3.1365573 -0.84371269 -0.18091638
3.1419947 -0.99459326 -0.15446749
3.1008105 -0.92211622 -0.15162528
3.1006711 -0.89258987 -0.15123034
3.1138434 -0.86692065 -0.15149663
3.1404493 -0.84475964 -0.15242521
3.2024796 -0.83143473 -0.1550765
3.119004 -0.98731554 -0.12447359
3.0993185 -0.95129842 -0.1233507
3.0989285 -0.92155647 -0.12300919
3.2276299 -0.86821061 -0.12716816
3.1633594 -0.82127827 -0.12434772
3.1150477 -0.98606318 -0.095508009
3.0931621 -0.94940877 -0.094578385
3.0897686 -0.9188326 -0.094224922
3.0963669 -0.89135081 -0.094184421
3.1122305 -0.86647159 -0.094432473
3.1193821 -0.83909267 -0.094422832
3.1591318 -0.82018065 -0.095404923
3.0874069 -0.97731358 -0.06612315
3.0745821 -0.94370592 -0.065668926
3.0732782 -0.91392869 -0.065467581
3.0792794 -0.88643181 -0.065427504
3.0930481 -0.86113101 -0.065557271
3.1162441 -0.83824855 -0.065890759
3.1591997 -0.82019836 -0.066644564
3.139884 -0.96374953 -0.038130794
3.0806661 -0.91612566 -0.037312768
3.1431329 -0.90481341 -0.037971914
3.1492393 -0.87677515 -0.037951447
3.1813116 -0.85575128 -0.038246151
3.1978354 -0.83022898 -0.038355902
3.1402748 -0.96386951 -0.0092049679
3.1063366 -0.92375952 -0.0090814196
3.143476 -0.90491211 -0.0091664717
3.1495209 -0.87685353 -0.0091613512
3.181818 -0.85588753 -0.0092331357
