# .PCD v0.7 - Point Cloud Data file format
VERSION 0.7
FIELDS x y z
SIZE 4 4 4
TYPE F F F
COUNT 1 1 1
WIDTH 1490
HEIGHT 1
VIEWPOINT 0 0 0 1 0 0 0
POINTS 1490
DATA ascii
2.5274849 0.75162113 0.27223831
2.5800626 0.74272239 0.27719015
1.9902507 0.76710063 0.27733618
2.4181809 0.76547116 0.26186937
1.990396 0.78724897 0.27830666
1.9905789 0.8075552 0.26970217
1.9907634 0.82801026 0.26105589
1.9909102 0.848602 0.26203984
1.9910589 0.86935151 0.26305157
1.9912089 0.89026356 0.26409152
1.9913582 0.91134232 0.2651599
1.9915113 0.93259519 0.26625782
1.9916621 0.95402473 0.26738495
1.9918188 0.97564036 0.268543
1.9919732 0.99744391 0.2697314
2.6118493 0.9804945 0.2632201
1.9921292 1.0194432 0.2709513
2.6120374 1.0067552 0.26411766
2.6122272 1.033198 0.2650418
2.6124177 1.0598283 0.26599282
2.6126082 1.0866517 0.26697111
2.6127987 1.1136746 0.26797712
2.6129954 1.1409062 0.26901197
2.6131911 1.1683499 0.27007535
2.6133888 1.1960137 0.27116811
2.6135871 1.223904 0.27229062
2.6141937 1.3090093 0.27584296
2.6144021 1.3378822 0.27709088
2.6146092 1.367018 0.27837127
2.5943244 -1.4743644 0.28154069
2.5945368 -1.4445677 0.2801798
1.9769181 -1.1006944 0.29420254
1.977078 -1.0782071 0.29280958
1.9772385 -1.0559313 0.29145235
1.9773942 -1.0338576 0.2901293
1.9775509 -1.0119828 0.28884059
1.9777063 -0.99030006 0.28758532
1.9778591 -0.96880257 0.28636253
1.9780107 -0.94748551 0.28517193
1.9781621 -0.92634398 0.28401303
1.978312 -0.90537179 0.2828851
1.9784613 -0.88456416 0.28178772
1.9786083 -0.86391521 0.28072006
1.9786769 -0.84338772 0.29895633
1.9788216 -0.82304335 0.29787752
2.4132245 -0.83427101 0.28636384
2.4717762 -0.8303473 0.29243755
2.5344172 -0.82675779 0.29898039
1.9789642 -0.80284327 0.29682899
2.2863817 -0.81290919 0.29380769
1.9791094 -0.78278488 0.29581097
2.5990548 -0.79774851 0.28068906
1.9792501 -0.76286066 0.29482195
1.9793921 -0.74306852 0.29386228
1.9820576 -0.7243259 0.29330483
4.1400533 -0.65820003 0.28403148
2.6001725 -0.62665701 0.29996315
4.1403193 -0.62111092 0.2836656
2.6003432 -0.60264862 0.29936236
4.1405816 -0.58411402 0.28332219
2.6005142 -0.57873464 0.298787
2.6006861 -0.55491096 0.29823685
4.1408463 -0.54720414 0.28300145
2.6008542 -0.53117228 0.29771113
2.601023 -0.50751561 0.29721019
4.141108 -0.51037461 0.28270295
2.6011915 -0.4839367 0.29673371
2.6013596 -0.46043149 0.29628143
4.1413713 -0.47362009 0.28242686
2.6015272 -0.43699601 0.29585323
4.1416335 -0.43693444 0.28217292
2.6016929 -0.41362613 0.29544869
4.1418939 -0.40031174 0.28194094
2.6018593 -0.39031851 0.29506803
2.602026 -0.36706915 0.29471096
4.1421561 -0.36374661 0.2817311
2.6021919 -0.34387419 0.29437733
2.6023576 -0.32072991 0.29406697
4.1424174 -0.32723308 0.28154314
2.6025214 -0.29763243 0.29377961
4.1426773 -0.29076532 0.28137687
2.6026864 -0.27457845 0.29351547
2.6028512 -0.25156415 0.29327431
4.1429372 -0.25433782 0.28123245
2.6030142 -0.22858571 0.29305583
2.6031792 -0.20563991 0.29286039
4.1431985 -0.21794501 0.28110978
2.6033411 -0.18272273 0.2926873
2.6035054 -0.15983102 0.29253712
4.1437168 -0.14524049 0.28092921
2.6036692 -0.13696103 0.29240954
2.4119503 -0.10570025 0.29231486
4.1439743 -0.10891763 0.28087121
2.6039948 -0.091272034 0.29222167
2.2886398 -0.060153175 0.29768032
4.1442327 -0.072606996 0.28083485
2.2731972 -0.03982643 0.29561499
2.2986703 -0.020134816 0.29889321
4.1444931 -0.036302991 0.28082016
2.6046476 0 0.29211554
2.4135706 0.021141266 0.29224196
2.6049724 0.045639135 0.29219678
2.6051366 0.068471774 0.29227129
4.1452703 0.072625168 0.28090516
2.6052983 0.091317721 0.29236794
2.6054621 0.11418062 0.29248732
4.1455307 0.10895853 0.28097668
2.6056242 0.13706388 0.29262909
2.6057889 0.15997122 0.29279375
4.1457887 0.14531311 0.2810697
2.6059535 0.18290609 0.292981
4.1460485 0.18169461 0.28118441
2.6061158 0.20587188 0.29319075
4.1463099 0.21810868 0.2813209
2.606281 0.22887258 0.29342362
2.6064439 0.25191137 0.29367912
4.1465683 0.25456074 0.28147894
2.6066079 0.27499217 0.29395771
2.6067736 0.29811874 0.29425961
4.1468296 0.29105675 0.28165892
2.6069403 0.3212947 0.29458481
4.1470914 0.3276023 0.2818608
2.607105 0.34452343 0.29493311
2.6072719 0.36780918 0.29530513
4.1473513 0.36420283 0.28208447
2.6074378 0.39115536 0.29570067
2.6076059 0.41456622 0.29612017
4.1476135 0.40086457 0.2823303
2.607775 0.43804547 0.29656371
4.1478763 0.43759304 0.28259826
2.6079402 0.46159622 0.29703093
4.14814 0.47439417 0.28288847
2.6081097 0.4852238 0.2975229
2.6082807 0.50893176 0.29803953
4.1484036 0.51127374 0.28320101
2.6084495 0.53272349 0.29858056
2.6086197 0.55660373 0.29914662
4.1486664 0.5482375 0.2835359
2.6087902 0.58057642 0.29973787
4.148931 0.58529186 0.2838935
2.0051451 0.63472539 0.29232457
4.1491976 0.62244278 0.28427389
1.9893285 0.64894319 0.29083624
4.1494622 0.65969592 0.284677
1.9894687 0.66832501 0.29170141
1.9896063 0.68782282 0.29259375
1.9897463 0.70744234 0.29351437
2.3376989 0.71752852 0.29607722
1.9898883 0.72718757 0.2944636
2.4746773 0.73591727 0.28955123
2.5392978 0.73098737 0.29635161
1.9900308 0.74706233 0.29544172
2.4145522 0.74111766 0.28326491
1.9901727 0.76707059 0.29644895
1.990316 0.78721732 0.29748598
1.9904606 0.80750728 0.29855338
1.9906462 0.82796156 0.28999203
1.9908332 0.84856915 0.28138915
1.9909797 0.86931694 0.28247529
1.9911299 0.89022821 0.28359208
1.9912797 0.91130638 0.2847394
1.9914329 0.93255848 0.28591838
1.9915838 0.95398724 0.28712881
1.9917383 0.97560096 0.28837204
1.9918948 0.99740469 0.2896485
1.9920514 1.0194033 0.29095855
2.5942233 -1.4743071 0.30806458
1.97684 -1.100651 0.31447753
1.9770015 -1.0781655 0.31298885
1.9771595 -1.0558891 0.31153768
1.977317 -1.0338172 0.31012374
1.9774715 -1.0119423 0.30874589
1.9776269 -0.9902603 0.30740407
1.9777811 -0.96876436 0.30609727
1.9779332 -0.94744843 0.30482468
1.9780835 -0.92630714 0.30358577
1.9782339 -0.90533602 0.30238017
1.9783827 -0.88452899 0.30120707
1.9784901 -0.86386359 0.30976167
1.978598 -0.84335411 0.31827629
1.9787426 -0.8230105 0.31712773
2.3780601 -0.82211435 0.30465162
1.9788884 -0.80281258 0.31601197
2.2616038 -0.80409962 0.31209573
2.3204298 -0.80219114 0.31923163
2.4391763 -0.8193959 0.31154972
2.5046418 -0.81704462 0.3189851
2.5688548 -0.81316668 0.30219105
1.9790301 -0.78275347 0.31492758
2.5989516 -0.79771686 0.30489787
1.9791726 -0.76283079 0.31387493
2.5991275 -0.77292621 0.30411258
1.9793144 -0.74303943 0.31285325
2.5993047 -0.74826157 0.30335477
1.9819807 -0.72429782 0.31225988
2.5994811 -0.72371775 0.30262393
2.5996552 -0.69928962 0.30191952
2.599828 -0.67497301 0.3012414
2.5999999 -0.65076345 0.30058929
2.6012561 -0.46041316 0.31985074
2.6014242 -0.43697867 0.31938848
2.6015913 -0.41360998 0.31895196
2.601758 -0.39030328 0.31854105
2.601923 -0.36705461 0.31815541
4.141993 -0.36373234 0.31852874
2.6020885 -0.34386051 0.31779516
2.6022544 -0.32071719 0.31746015
4.1422553 -0.32722026 0.31831625
2.6024179 -0.29762059 0.31714991
4.1425142 -0.29075387 0.31812823
2.6025832 -0.27456757 0.31686479
2.6027479 -0.25155416 0.31660444
4.1427751 -0.25432786 0.317965
2.602911 -0.22857665 0.31636858
2.6030755 -0.2056317 0.31615749
4.1430359 -0.21793646 0.3178263
2.6032393 -0.18271559 0.3159709
2.6034033 -0.15982476 0.31580877
2.6035674 -0.13695568 0.31567103
2.4194593 -0.10602932 0.31488916
4.1438146 -0.10891342 0.31755677
2.603893 -0.091268472 0.31546825
2.281522 -0.059966095 0.31721795
2.266886 -0.03971586 0.31512249
2.2908769 -0.020066552 0.31842086
4.1443319 -0.036301579 0.31749898
2.6045432 0 0.31535336
2.4210851 0.021207089 0.31481066
2.6048687 0.045637321 0.31544116
2.6050324 0.06846904 0.31552154
4.1451092 0.072622344 0.31759506
2.6051943 0.091314077 0.31562591
2.6053584 0.11417609 0.31575483
4.14537 0.10895431 0.31767598
2.605521 0.13705844 0.3159079
2.6056852 0.15996484 0.31608558
4.145628 0.14530747 0.31778109
2.605849 0.18289876 0.31628767
4.1458888 0.18168761 0.31791088
2.6060119 0.20586367 0.31651416
4.1461487 0.21810022 0.31806514
2.6061773 0.22886348 0.31676558
2.6063423 0.25190154 0.31704167
4.1464076 0.25455087 0.3182438
2.6065061 0.27498141 0.3173424
2.606672 0.29810712 0.31766832
4.1466694 0.29104552 0.31844735
2.6068385 0.32128215 0.31801939
4.1469288 0.32758945 0.31867543
2.607003 0.34450996 0.31839538
2.6071706 0.3677949 0.31879708
2.6073346 0.39113989 0.31922382
2.6075025 0.41454977 0.31967667
2.6089618 0.60464609 0.3003546
2.005064 0.63469964 0.31121573
2.6091342 0.62881684 0.30099699
1.9892498 0.6489175 0.30963153
2.6093073 0.65309304 0.30166534
1.9893899 0.66829854 0.3105526
2.6094835 0.67747974 0.30236018
1.9895275 0.68779558 0.31150258
1.9896681 0.70741451 0.3124828
2.3116765 0.7095412 0.31441286
2.5797887 0.71823525 0.30033141
2.6096568 0.70198005 0.3030811
1.9898077 0.72715813 0.31349304
2.4380124 0.72501391 0.30796611
2.5057693 0.72133553 0.31571481
1.9899489 0.74703157 0.31453413
1.9900929 0.76703978 0.31560674
1.9902364 0.78718585 0.31671086
1.9903833 0.80747586 0.31784758
1.9905274 0.82791209 0.31901646
1.9907538 0.84853536 0.30078101
1.9909008 0.86928242 0.30194208
1.9910511 0.89019293 0.30313581
1.9912013 0.9112705 0.30436227
1.9913547 0.93252182 0.30562255
1.9915061 0.95394999 0.30691645
1.9916607 0.97556293 0.30824539
1.9918175 0.99736595 0.30960986
1.991974 1.0193638 0.31101021
2.6142993 1.3378296 0.30319548
2.6145065 1.3669642 0.30459645
2.5941219 -1.4742495 0.33463469
1.97676 -1.1006064 0.33480033
1.976923 -1.0781226 0.33321571
1.9770814 -1.0558474 0.33167082
1.9772381 -1.0337759 0.33016536
1.9773945 -1.0119028 0.32869878
1.9775498 -0.99022168 0.32727024
1.9777017 -0.9687255 0.32587862
1.9778556 -0.94741124 0.32452407
1.9780058 -0.92627078 0.32320508
1.9781538 -0.90529937 0.3219212
1.9783045 -0.88449401 0.32067257
1.9783721 -0.86381209 0.33889827
1.9785192 -0.84332049 0.33764514
1.9786636 -0.82297766 0.33642668
1.9788094 -0.80278051 0.33524299
2.4190488 -0.81263447 0.33180708
2.5687561 -0.81313545 0.32623094
1.9789526 -0.78272289 0.33409292
2.2459264 -0.79852557 0.33130437
2.3074899 -0.79771763 0.33934203
2.5988503 -0.79768574 0.32915288
1.9790945 -0.76280069 0.33297607
2.5990274 -0.77289641 0.32830527
1.9792342 -0.74300933 0.33189186
2.5992029 -0.74823225 0.32748699
1.9819038 -0.72426969 0.33126298
2.5993788 -0.72368932 0.32669795
2.5995507 -0.69926155 0.32593721
2.5997257 -0.67494643 0.32520542
2.5998981 -0.650738 0.32450151
2.6000698 -0.62663221 0.32382542
2.6002409 -0.60262495 0.32317689
2.6004114 -0.57871181 0.32255572
2.6005836 -0.55488902 0.32196182
2.6007514 -0.53115129 0.32139426
2.6009219 -0.50749594 0.32085368
2.6010888 -0.48391759 0.32033908
2.6026464 -0.25154433 0.33998275
2.602809 -0.22856769 0.33972943
2.6029732 -0.20562363 0.33950275
2.6031358 -0.18270831 0.33930218
2.6032996 -0.1598184 0.33912808
2.4365165 -0.12816828 0.33911932
2.6034632 -0.13695019 0.33898011
2.4248874 -0.1062672 0.33735824
2.6037889 -0.091264822 0.33876234
2.2784603 -0.059885625 0.33727828
2.2643824 -0.039671998 0.33513004
2.287466 -0.020036675 0.33850747
2.6044414 0 0.33863929
2.4265442 0.021254906 0.33727798
2.4383264 0.042719495 0.33895463
2.6047671 0.04563554 0.33873358
2.6049306 0.068466365 0.33881986
2.6050925 0.091310509 0.33893195
2.6052563 0.11417161 0.33907035
2.6054184 0.13705304 0.33923468
2.6055827 0.15995856 0.33942547
2.6057475 0.18289164 0.33964261
2.6059101 0.20585564 0.3398858
2.607671 0.43802804 0.32015547
2.6078386 0.46157825 0.32066014
2.608007 0.48520467 0.32119107
2.6081753 0.50891119 0.32174847
2.6083462 0.53270239 0.3223328
2.6085165 0.55658174 0.32294396
2.6086876 0.58055365 0.32358229
2.6088612 0.60462278 0.32424831
2.0049827 0.63467395 0.33015472
2.6090314 0.62879205 0.32494155
1.9891704 0.64889163 0.32847428
2.6092048 0.65306741 0.32566309
1.9893093 0.66827148 0.3294512
2.6093812 0.67745328 0.32641324
1.9894493 0.68776852 0.33045939
1.9895875 0.70738584 0.33149886
2.2954605 0.70456392 0.3337363
2.4143841 0.7179873 0.32751423
2.4858613 0.7156046 0.33634701
2.5789104 0.7179907 0.32412541
2.6095543 0.70195246 0.3271915
1.9897296 0.72712958 0.332571
1.9898707 0.74700224 0.33367544
1.9900149 0.76700974 0.33481339
1.9901588 0.78715515 0.33598477
1.9903039 0.80744368 0.33719033
1.9904485 0.82787925 0.3384304
1.9906355 0.84848493 0.32996255
1.9908221 0.86924815 0.32145509
1.9909725 0.89015788 0.32272601
1.9911228 0.91123462 0.32403174
1.9912747 0.93248439 0.3253732
1.9914281 0.95391268 0.32675105
1.9915811 0.97552395 0.32816562
1.991738 0.99732614 0.32961828
1.9918948 1.0193232 0.33110917
2.6144037 1.3669106 0.33086738
1.9766841 -1.1005641 0.35517529
1.9768432 -1.0780792 0.35349354
1.9770029 -1.0558054 0.35185486
1.9771619 -1.0337361 0.35025817
1.9773157 -1.0118625 0.34870192
1.9774709 -0.99018216 0.34718642
1.9776244 -0.96868765 0.3457104
1.9777757 -0.94737297 0.34427297
1.9779261 -0.92623347 0.34287375
1.9780777 -0.9052645 0.34151232
1.9781861 -0.88444114 0.34997088
1.9782957 -0.86377871 0.35839179
1.9784405 -0.84328693 0.35706615
1.978585 -0.82294494 0.35577762
1.9787303 -0.80274844 0.35452577
2.4109311 -0.80990744 0.35349739
2.4879713 -0.81160653 0.34027264
2.5627069 -0.81122065 0.34950876
1.978873 -0.78269136 0.35330942
2.2393339 -0.79618168 0.35169348
2.5987463 -0.79765385 0.35345745
1.9790148 -0.76276994 0.35212836
2.5989239 -0.77286565 0.35254732
1.9791566 -0.74298018 0.35098213
2.5990987 -0.74820232 0.35166851
1.9818263 -0.72424144 0.35031712
2.5992751 -0.72366041 0.35082126
2.5994487 -0.69923407 0.35000458
2.5996234 -0.6749199 0.34921873
2.5997956 -0.65071231 0.34846279
2.5999675 -0.6266076 0.34773684
2.6001403 -0.60260165 0.34704065
2.6003106 -0.57868934 0.34637356
2.600481 -0.55486715 0.34573558
2.6006486 -0.53113031 0.34512609
2.6008189 -0.50747579 0.34454557
2.6009853 -0.48389834 0.34399292
2.601155 -0.46039528 0.34346882
2.6013229 -0.43696165 0.34297243
2.6014881 -0.41359359 0.34250343
2.6016548 -0.39028779 0.34206215
2.6018195 -0.36704001 0.34164798
2.6019871 -0.3438471 0.34126142
2.6021528 -0.32070467 0.34090164
2.6023161 -0.29760894 0.34056845
2.6024814 -0.27455682 0.34026229
2.4248431 -0.12755422 0.35931936
2.4176371 -0.10594947 0.3581003
2.2801979 -0.059931293 0.35809067
2.2663176 -0.039705902 0.35584256
2.2889197 -0.020049406 0.35935003
2.419318 0.021191608 0.35801938
2.4271119 0.042523019 0.3592141
2.6060753 0.22885451 0.34015575
2.6062405 0.2518917 0.34045225
2.6064045 0.27497071 0.34077522
2.6065683 0.29809526 0.34112495
2.6067348 0.32126936 0.34150192
2.6068997 0.34449631 0.34190571
2.6070671 0.3677803 0.34233704
2.607233 0.39112464 0.34279555
2.6074009 0.41453364 0.34328189
2.6075678 0.43801069 0.34379581
2.6077356 0.46156001 0.34433776
2.6079056 0.4851858 0.34490815
2.6080723 0.50889111 0.34550646
2.6082437 0.53268141 0.34613401
2.6084156 0.55656016 0.34679049
2.6085849 0.58053076 0.34747574
2.6087584 0.60459894 0.34819093
2.0049014 0.6346482 0.34914461
2.6089289 0.62876737 0.3489354
1.9890937 0.64886659 0.34736821
2.6091027 0.65304184 0.34971026
1.9892305 0.66824496 0.34840095
2.609277 0.67742622 0.35051554
1.9893705 0.68774128 0.34946716
1.9895093 0.70735806 0.35056654
2.2892373 0.70265377 0.35435474
2.4030681 0.7146222 0.34845787
2.4797497 0.71384531 0.35865667
2.5636384 0.71373886 0.3460114
2.609452 0.70192492 0.3513515
1.9896517 0.72710109 0.35170037
1.9897927 0.74697298 0.35286832
1.9899354 0.7669791 0.35407147
1.9900794 0.78712374 0.35531023
1.9902244 0.80741143 0.35658514
1.990369 0.82784617 0.35789654
1.9905151 0.84843361 0.35924536
1.9907435 0.86921382 0.34101754
1.9908924 0.890122 0.3423655
1.9910446 0.91119879 0.34375104
1.9911948 0.93244696 0.34517387
1.9913503 0.9538753 0.34663591
1.9915041 0.97548622 0.34813669
1.991657 0.9972856 0.34967709
1.9918159 1.0192828 0.35125905
2.6143017 1.3668572 0.35718825
2.5940213 -1.4741921 0.36125535
1.9766053 -1.1005203 0.37560457
1.9767656 -1.0780368 0.37382632
1.9769232 -1.0557629 0.37209299
1.9770817 -1.0336941 0.37040439
1.9772372 -1.0118223 0.36875895
1.9773917 -0.99014252 0.36715615
1.9775456 -0.96864897 0.36559525
1.9776982 -0.9473359 0.36407542
1.9778484 -0.92619705 0.36259568
1.9779993 -0.90522867 0.36115584
1.9780679 -0.88438827 0.37937745
1.9782152 -0.8637436 0.37794015
1.9783618 -0.84325343 0.37654254
1.9785076 -0.82291281 0.37518397
1.9786508 -0.8027162 0.37386343
2.4167793 -0.81187201 0.37726992
2.48489 -0.81060135 0.36328644
2.5661228 -0.81230187 0.37410793
1.9787936 -0.78265995 0.37258077
2.2428551 -0.79743361 0.37369755
2.3045039 -0.7966854 0.3608188
2.598645 -0.79762274 0.3778162
1.9789375 -0.76274019 0.37133566
2.5988221 -0.77283537 0.3768433
1.9790764 -0.74295008 0.3701264
2.5989969 -0.748173 0.3759039
1.9817492 -0.72421318 0.36942568
2.5991731 -0.72363198 0.37499821
2.5993464 -0.69920659 0.37412524
2.5995212 -0.67489332 0.37328523
2.5996933 -0.65068668 0.3724772
2.5998647 -0.62658286 0.37170115
2.6000376 -0.60257781 0.37095702
2.6002078 -0.57866645 0.37024391
2.6003778 -0.55484515 0.36956194
2.6005471 -0.53110957 0.36891067
2.6007161 -0.50745577 0.36828995
2.6008842 -0.48387954 0.36769944
2.6010523 -0.46037707 0.36713901
2.6012194 -0.43694428 0.36660829
2.6013844 -0.41357711 0.36610696
2.6015532 -0.39027259 0.36563557
2.6017196 -0.36702594 0.36519313
2.6018834 -0.34383342 0.36477938
2.6020491 -0.32069188 0.36439478
2.6022122 -0.29759708 0.36403862
2.6023796 -0.27454606 0.36371163
2.6025441 -0.25153443 0.36341277
2.6027069 -0.2285587 0.36314201
2.6028712 -0.20561557 0.36289972
2.6030352 -0.18270126 0.36268553
2.6031973 -0.15981211 0.36249918
2.4166467 -0.10590606 0.37975216
2.4330637 -0.085280769 0.36026084
2.6736288 -0.093712755 0.37183547
2.2747469 -0.039853584 0.37772495
2.4341936 0 0.3602069
2.6742985 0 0.37170038
2.4182816 0.021182531 0.37965927
2.6048281 0.068463668 0.36216971
2.6049895 0.091306895 0.36228946
2.6051538 0.11416712 0.36243749
2.6053169 0.13704771 0.36261326
2.6054807 0.1599523 0.36281717
2.6056452 0.18288445 0.36304921
2.6058083 0.20584759 0.36330923
2.6059716 0.2288454 0.36359751
2.6061363 0.25188163 0.36391437
2.6063001 0.27495971 0.3642596
2.6064668 0.29808363 0.3646338
2.6066308 0.32125655 0.3650364
2.6067975 0.34448281 0.36546832
2.6069651 0.3677659 0.36592939
2.6071293 0.39110908 0.36641929
2.6072977 0.41451719 0.36693916
2.6074665 0.43799365 0.36748874
2.6076319 0.46154165 0.36806774
2.6078019 0.48516655 0.36867744
2.6079712 0.50887138 0.36931735
2.6081405 0.53266037 0.36998788
2.6083126 0.55653822 0.3706896
2.6084816 0.58050781 0.37142205
2.6086555 0.6045751 0.37218657
2.0048196 0.63462234 0.36818853
2.6088264 0.62874264 0.37298238
1.9890147 0.64884084 0.36631566
2.609 0.65301609 0.37381065
1.9891518 0.66821855 0.36740476
2.6091743 0.67739946 0.37467137
1.989292 0.68771416 0.36852917
1.9894309 0.70733017 0.36968851
2.405566 0.71536505 0.37137729
2.5645883 0.71400332 0.37000847
2.6093497 0.70189738 0.37556502
1.9895732 0.72707248 0.37088421
1.989713 0.74694306 0.37211564
1.9898578 0.76694918 0.37338477
1.99 0.78709239 0.3746908
1.9901435 0.80737865 0.37603498
1.9902903 0.82781345 0.37741831
1.9904366 0.84840012 0.37884071
1.9906647 0.86917937 0.3606326
1.9908139 0.89008689 0.36205816
1.9909666 0.91116309 0.36352348
1.9911169 0.93241048 0.36502814
1.9912688 0.95383632 0.36657363
1.9914244 0.97544724 0.36816111
1.9915799 0.99724692 0.36979055
1.9917374 1.0192426 0.37146327
2.593919 -1.4741341 0.38793057
1.9765261 -1.1004761 0.39609206
1.9766862 -1.0779935 0.39421675
1.976845 -1.0557212 0.39238912
1.9770031 -1.0336531 0.39060834
1.9771587 -1.0117822 0.38887313
1.9773148 -0.99010396 0.38718322
1.9774662 -0.96861011 0.38553673
1.9776191 -0.94729799 0.38393405
1.9777708 -0.92616069 0.38237387
1.9779195 -0.90519208 0.38085505
1.9779899 -0.8843534 0.39905968
1.9781368 -0.86370933 0.39754772
1.9782814 -0.8432191 0.39607722
1.978429 -0.82288003 0.39464852
1.978572 -0.80268419 0.39325944
2.2606263 -0.80375201 0.39833936
2.49912 -0.81524336 0.38899404
2.5684507 -0.81303877 0.39866173
1.9787159 -0.78262919 0.39191046
2.3139553 -0.79995281 0.38436177
1.9788578 -0.76270944 0.39060035
1.9789983 -0.7429207 0.38932866
1.9816709 -0.72418463 0.38859162
2.599071 -0.72360355 0.3992326
2.5992441 -0.69917911 0.39830318
2.5994186 -0.67486674 0.39740881
2.5995905 -0.65066099 0.39654857
2.5997622 -0.62655807 0.39572236
2.5999351 -0.60255408 0.39493015
2.600105 -0.57864362 0.39417097
2.6002748 -0.55482316 0.39344481
2.6004441 -0.53108853 0.39275149
2.6006126 -0.50743556 0.39209059
2.6007826 -0.48386064 0.39146221
2.6009488 -0.46035877 0.39086527
2.6011162 -0.43692693 0.3903003
2.6012828 -0.41356096 0.38976681
2.6014493 -0.390257 0.38926461
2.6016157 -0.36701128 0.38879356
2.6017814 -0.34381995 0.38835338
2.6019475 -0.32067937 0.38794398
2.6021101 -0.2975854 0.38756472
2.6022754 -0.27453509 0.3872163
2.6024399 -0.25152439 0.38689813
2.6026027 -0.22854957 0.38660988
2.602767 -0.20560734 0.38635191
2.6029329 -0.18269408 0.38612419
2.6030951 -0.15980583 0.3859258
2.4202116 -0.1273106 0.38047302
2.4334736 -0.085295133 0.38226429
2.2896612 -0.06018002 0.38027442
2.2988634 -0.020136507 0.38168558
2.43455 0 0.38219866
2.4228323 0.04244804 0.38041747
2.6047249 0.068460956 0.38557491
2.6048872 0.091303319 0.38570252
2.6050518 0.11416265 0.38586015
2.6052136 0.13704227 0.3860471
2.6053765 0.15994591 0.38626406
2.6055405 0.18287709 0.386511
2.6057041 0.20583935 0.38678789
2.6058681 0.22883633 0.38709494
2.606035 0.25187182 0.38743258
2.606199 0.27494904 0.38780016
2.6063643 0.29807192 0.38819835
2.6065271 0.32124379 0.38862681
2.6066935 0.34446904 0.38908657
2.6068618 0.36775133 0.38957754
2.6070282 0.39109391 0.39009941
2.6071937 0.41450068 0.39065248
2.6073606 0.43797588 0.39123732
2.6075304 0.46152365 0.39185432
2.6076989 0.48514736 0.39250323
2.6078677 0.50885117 0.39318442
2.6080375 0.53263932 0.39389834
2.6082072 0.55651569 0.39464509
2.6083784 0.58048481 0.39542517
2.6085525 0.6045512 0.39623913
2.0047379 0.63459641 0.38728973
2.6087236 0.6287179 0.39708644
1.9889318 0.64881378 0.38531935
2.6088972 0.6529904 0.3979682
1.9890726 0.66819197 0.38646573
2.6090701 0.6773724 0.39888436
1.9892092 0.68768549 0.38764775
1.9893504 0.70730156 0.38886771
2.4907639 0.71701598 0.38354602
2.5793793 0.71812123 0.39620784
2.6092458 0.70186949 0.39983582
1.9894911 0.72704244 0.3901251
2.4281547 0.72208244 0.39769301
1.9896348 0.74691367 0.39142117
1.9897763 0.76691771 0.39275551
1.9899203 0.7870608 0.39412963
1.9900645 0.80734658 0.39554369
1.990211 0.82778049 0.39699876
1.9903576 0.8483665 0.39849505
1.9905863 0.86914515 0.38030365
1.9907355 0.8900519 0.381807
1.9908847 0.9111256 0.38335156
1.9910372 0.93237317 0.38493875
1.9911894 0.95379823 0.38656858
1.9913452 0.97540838 0.38824266
1.9914991 0.99720651 0.38996068
1.9916567 1.0192013 0.39172465
2.6141999 1.366804 0.38356337
2.5938158 -1.4740754 0.41466472
1.9764473 -1.1004323 0.41664127
1.9766086 -1.0779512 0.41466892
1.9767658 -1.0556788 0.41274613
1.9769236 -1.0336115 0.41087294
1.9770783 -1.011741 0.40904751
1.9772345 -0.99006379 0.40726995
1.9773873 -0.96857148 0.40553835
1.9775398 -0.94726002 0.40385243
1.9776912 -0.92612344 0.40221125
1.9778401 -0.90515578 0.4006137
1.9779098 -0.88431752 0.41880393
1.9780566 -0.86367434 0.41721714
1.9782046 -0.84318644 0.41567463
1.9783479 -0.82284629 0.41417429
2.4438968 -0.82098168 0.4047358
1.9784926 -0.802652 0.4127169
1.9786367 -0.7825979 0.4113012
2.5985415 -0.79759097 0.40223244
1.9787778 -0.76267856 0.40992609
2.5987186 -0.77280456 0.40119666
1.9789206 -0.74289155 0.40859196
2.5988929 -0.74814308 0.40019652
1.9815934 -0.72415626 0.40781847
2.5996592 -0.62653327 0.41980436
2.5998318 -0.60253012 0.41896388
2.6000018 -0.57862061 0.41815847
2.6001716 -0.55480117 0.41738817
2.6003428 -0.53106785 0.41665295
2.6005092 -0.50741535 0.41595149
2.6006792 -0.48384136 0.41528484
2.6008451 -0.46034041 0.41465157
2.6010139 -0.43690979 0.41405246
2.6011789 -0.41354442 0.41348621
2.6013453 -0.39024138 0.41295347
2.6015131 -0.36699682 0.41245398
2.6016772 -0.34380615 0.41198671
2.6018426 -0.32066646 0.41155234
2.6020076 -0.29757369 0.4111504
2.6021729 -0.27452427 0.41078073
2.6023376 -0.25151449 0.41044322
2.6025 -0.22854055 0.41013739
2.6026642 -0.20559922 0.40986371
2.6028283 -0.18268673 0.40962183
2.6029904 -0.15979941 0.40941134
2.4418466 -0.12844867 0.40597039
2.4318323 -0.10657155 0.40413472
2.3135808 -0.060808711 0.40522218
2.2952907 -0.04021351 0.40194154
2.3229527 -0.020347515 0.40673882
2.4333436 0.021314465 0.40401363
2.4436378 0.042812556 0.40576953
2.6046212 0.068458229 0.40903926
2.6047831 0.091299668 0.40917459
2.6049469 0.11415805 0.40934169
2.6051095 0.13703679 0.40954015
2.6052732 0.15993956 0.40977043
2.605438 0.18286991 0.41003254
2.6056011 0.20583123 0.41032621
2.6057661 0.22882737 0.4106521
2.605932 0.25186187 0.41101015
2.6060934 0.27493787 0.41139963
2.6062598 0.29805997 0.41182229
2.6064241 0.32123107 0.41227701
2.6065912 0.34445554 0.41276488
2.6067586 0.36773679 0.41328561
2.6069229 0.39107808 0.41383886
2.6070919 0.4144845 0.41442615
2.6072567 0.43795842 0.41504624
2.6074266 0.46150532 0.41570088
2.6075964 0.48512831 0.41638944
2.6077638 0.5088309 0.41711184
2.6079354 0.53261852 0.41786954
2.6081038 0.55649364 0.4186615
2.6082752 0.5804618 0.41948906
2.0046556 0.63457042 0.40645146
1.9888524 0.64878786 0.40438402
1.9889916 0.66816473 0.40558678
1.9891301 0.68765819 0.40682766
1.9892718 0.7072736 0.40810809
1.9894109 0.72701311 0.40942734
2.5321598 0.72893256 0.41366574
1.9895548 0.74688363 0.41078761
1.989696 0.76688683 0.41218793
1.989841 0.78702945 0.41363022
1.9899848 0.80731422 0.41511416
1.9901303 0.82774693 0.416641
1.990279 0.84833294 0.41821176
1.9904658 0.86909258 0.40992981
1.9906558 0.8900162 0.40161502
1.9908048 0.91108906 0.4032397
1.9909577 0.93233597 0.40490931
1.9911104 0.95376045 0.40662381
1.9912643 0.9753688 0.40838435
1.9914205 0.99716717 0.41019198
1.9915768 1.0191604 0.41204718
2.614094 1.3667486 0.40999624
1.9763663 -1.1003871 0.43725517
1.9765278 -1.0779071 0.43518531
1.9766862 -1.0556364 0.43316767
1.9768437 -1.0335697 0.4312017
1.9770004 -1.0117011 0.42928639
1.9771562 -0.99002457 0.42742079
1.977307 -0.96853209 0.42560306
1.9774609 -0.94722223 0.42383406
1.9776119 -0.92608631 0.42211157
1.9777603 -0.90511924 0.42043489
1.9778298 -0.88428175 0.43861398
1.9779763 -0.8636393 0.43695208
1.9781241 -0.84315211 0.43533656
1.978269 -0.82281351 0.43376562
2.5458558 -0.83048916 0.42040044
1.9784133 -0.80261981 0.43223917
2.3060298 -0.81989497 0.42852089
2.5683477 -0.81300622 0.4229224
1.9785551 -0.78256559 0.430756
2.5984375 -0.79755908 0.42671046
1.9786965 -0.76264727 0.42931592
2.5986166 -0.77277422 0.42561194
1.9788386 -0.74286073 0.42791852
2.598793 -0.74811429 0.42455128
1.981515 -0.72412765 0.42710933
2.5989666 -0.72357458 0.42352799
2.5991418 -0.69915158 0.42254233
2.5993142 -0.67483962 0.42159319
2.5994883 -0.65063536 0.42068091
2.6004052 -0.50739509 0.43987653
2.6005752 -0.48382208 0.43917158
2.6007428 -0.46032232 0.4385021
2.6009097 -0.43689227 0.43786824
2.6010764 -0.41352811 0.43726969
2.601243 -0.39022604 0.43670633
2.601409 -0.3669821 0.43617779
2.6015749 -0.34379265 0.43568397
2.6017401 -0.3206538 0.43522456
2.6019051 -0.29756194 0.43479946
2.6020682 -0.27451321 0.43440825
2.6022346 -0.25150454 0.4340516
2.602397 -0.22853151 0.43372816
2.6025615 -0.20559111 0.43343881
2.6027253 -0.1826795 0.43318295
2.6028874 -0.15979309 0.43296039
2.6033766 -0.091250367 0.43249348
2.3391025 -0.061479505 0.43096426
2.3230393 -0.040699668 0.42792261
2.6040289 0 0.43233633
2.6045177 0.06845551 0.43256679
2.6046798 0.091296047 0.43270996
2.6048436 0.11415353 0.43288669
2.605006 0.13703135 0.4330965
2.6051705 0.15993325 0.43334016
2.6053352 0.18286268 0.43361735
2.6054978 0.20582306 0.43392783
2.6056612 0.22881813 0.43427217
2.6058271 0.25185174 0.43465081
2.6059909 0.27492708 0.43506312
2.6061571 0.2980482 0.43551001
2.6063218 0.32121849 0.43599102
2.6064868 0.34444174 0.4365066
2.6066546 0.36772212 0.43705735
2.6068208 0.3910628 0.43764275
2.6069877 0.41446793 0.43826345
2.6071548 0.43794131 0.4389196
2.6073227 0.46148694 0.43961155
2.6084502 0.60452747 0.42035273
2.0045733 0.63454437 0.42567697
2.6086209 0.6286931 0.42125154
1.9887732 0.64876205 0.42351225
2.6087947 0.65296471 0.422187
1.9889129 0.66813827 0.42477199
2.6089671 0.67734575 0.42315885
1.9890516 0.68763101 0.42607164
1.9891917 0.70724511 0.42741227
2.5792778 0.71809298 0.42031947
2.609143 0.70184183 0.42416823
1.9893326 0.7269845 0.42879435
1.9894751 0.74685377 0.43021867
2.5010858 0.7437706 0.43321714
1.9896164 0.76685613 0.43168524
1.9897594 0.7869972 0.43319532
1.9899056 0.80728209 0.43474996
1.9900496 0.82771337 0.43634871
1.9901986 0.84829867 0.43799382
1.9903452 0.86903989 0.43968448
1.9905754 0.88998032 0.42148578
1.9907248 0.91105247 0.42319089
1.990876 0.93229771 0.42494273
1.9910309 0.95372242 0.42674255
1.9911836 0.97532922 0.42858994
1.9913419 0.99712783 0.43048748
1.9914984 1.0191203 0.4324345
2.6139908 1.3666947 0.43649229
2.5937138 -1.4740175 0.44146255
1.976288 -1.1003436 0.45793837
1.976449 -1.0778642 0.45577046
1.976607 -1.055594 0.4536573
1.9767659 -1.033529 0.45159867
1.9769205 -1.0116603 0.44959232
1.9770757 -0.98998427 0.44763833
1.97723 -0.96849436 0.44573539
1.9773815 -0.94718415 0.44388217
1.9775302 -0.9260481 0.44207773
1.9776825 -0.90508366 0.44032258
1.9777498 -0.88424605 0.45849329
1.9778982 -0.8636052 0.4567565
1.9780436 -0.84311777 0.45506713
2.5395577 -0.85311717 0.44478723
1.9781886 -0.82278007 0.45342508
2.5680702 -0.83773571 0.44847858
1.9783326 -0.80258709 0.45182937
2.5682464 -0.81297415 0.44724861
1.9784756 -0.78253418 0.45027927
2.5983357 -0.79752779 0.45125467
1.9786186 -0.76261723 0.44877428
2.5985124 -0.77274323 0.45009255
1.9787587 -0.74283075 0.4473131
2.5986888 -0.74808431 0.44897091
1.9814365 -0.72409898 0.44646755
2.5988643 -0.72354603 0.44788906
2.5990391 -0.69912392 0.44684663
2.5992115 -0.67481291 0.44584292
2.599385 -0.65060955 0.4448781
2.5995562 -0.62650847 0.44395116
2.5997286 -0.60250622 0.44306231
2.5998967 -0.57859719 0.44221023
2.6000681 -0.55477905 0.44139594
2.6002386 -0.53104651 0.44061828
2.6013062 -0.36696759 0.45996949
2.60147 -0.34377879 0.45944837
2.601635 -0.32064086 0.45896387
2.6018021 -0.29755017 0.45851597
2.6019654 -0.27450237 0.45810342
2.6021297 -0.25149438 0.45772693
2.6022921 -0.22852229 0.45738584
2.602458 -0.20558293 0.45708099
2.602622 -0.18267226 0.45681125
2.6027842 -0.15978675 0.4565765
2.6029475 -0.13692307 0.4563773
2.6031113 -0.11407761 0.4562133
2.6032732 -0.091246739 0.45608407
2.6039252 0 0.45591837
2.6040869 0.022810062 0.45596418
2.6042507 0.045626491 0.4560453
2.6044123 0.068452746 0.45616111
2.6045761 0.091292411 0.45631236
2.6047399 0.11414897 0.45649871
2.6049027 0.13702592 0.45672008
2.6050668 0.15992688 0.45697692
2.605232 0.18285544 0.45726931
2.6053932 0.20581479 0.45759651
2.6055579 0.22880909 0.45795986
2.6057215 0.25184155 0.45835876
2.6058879 0.2749162 0.458794
2.6060522 0.29803622 0.45926493
2.6062167 0.32120553 0.45977214
2.6074929 0.48510903 0.44033977
2.6076603 0.5088107 0.44110376
2.607831 0.53259718 0.44190484
2.608 0.55647147 0.44274247
2.6081722 0.58043891 0.44361779
2.6083438 0.60450286 0.44453055
2.0044909 0.63451821 0.44496956
2.6085174 0.62866819 0.44548157
1.9886941 0.64873624 0.44270739
2.6086919 0.65293902 0.44647095
1.9888316 0.66811103 0.44402373
2.6088638 0.67731893 0.44749862
1.9889712 0.68760324 0.44538251
1.989109 0.70721573 0.44678336
2.5791762 0.71806467 0.44449601
2.6090398 0.70181406 0.44856605
1.9892522 0.72695512 0.44822863
1.9893929 0.74682289 0.44971704
2.5793502 0.74251729 0.44562981
1.989537 0.7668255 0.4512507
1.9896802 0.78696585 0.4528293
1.9898247 0.80724931 0.45445403
1.9899708 0.82768059 0.45612571
1.9901165 0.84826368 0.45784464
1.9902651 0.86900491 0.4596124
1.9904935 0.88994366 0.44142237
1.9906455 0.91101617 0.44320872
1.9907967 0.93226057 0.44504344
1.9909519 0.95368451 0.44692847
1.9911048 0.97529066 0.4488633
1.9912598 0.9970867 0.45084983
1.9914184 1.0190793 0.45288944
2.59361 -1.4739585 0.46832791
1.9762074 -1.1002986 0.47869334
1.9763682 -1.0778201 0.47642714
1.9765279 -1.0555519 0.47421864
1.9766848 -1.0334866 0.47206619
1.9768409 -1.0116194 0.46996921
1.9769934 -0.98994309 0.46792608
1.9771496 -0.96845508 0.46593738
1.9773008 -0.94714552 0.46400005
1.9774514 -0.9260112 0.46211427
1.9776011 -0.90504634 0.46027896
1.9776685 -0.88420969 0.47844496
2.5676107 -0.88764358 0.47566646
1.9778179 -0.86357009 0.4766328
2.5677888 -0.86260092 0.47428149
1.977963 -0.84308338 0.47486988
1.9781095 -0.82274717 0.47315672
2.5679677 -0.83770233 0.47294107
1.9782534 -0.80255497 0.47149155
2.5681434 -0.81294149 0.47164389
1.9783946 -0.78250211 0.46987355
2.5982313 -0.79749578 0.47586843
1.9785388 -0.76258647 0.46830338
2.5984085 -0.77271235 0.47464302
1.9786789 -0.74280083 0.46677864
2.5985858 -0.74805468 0.47346035
1.9919641 -0.72794616 0.46839049
2.5987599 -0.723517 0.47231925
2.5989344 -0.69909579 0.47121996
2.5991068 -0.67478573 0.47016147
2.5992801 -0.65058333 0.46914399
2.5994508 -0.62648308 0.46816638
2.5996234 -0.60248184 0.46722907
2.5997949 -0.5785746 0.46633115
2.5999639 -0.55475682 0.46547198
2.6001348 -0.53102541 0.46465203
2.6003029 -0.50737512 0.46387005
2.600471 -0.48380268 0.4631263
2.6006386 -0.46030387 0.46242031
2.600806 -0.43687484 0.46175194
2.6009741 -0.41351184 0.46112102
2.6011384 -0.39021033 0.46052653
2.6030073 -0.11407305 0.47988158
2.603169 -0.091243096 0.47974563
2.6036577 -0.022806302 0.4795596
2.6038215 0 0.47957137
2.6039827 0.022809148 0.47961944
2.6041467 0.04562467 0.47970486
2.6043084 0.068450011 0.47982669
2.6044726 0.091288783 0.47998586
2.606384 0.34442815 0.46031624
2.6065497 0.36770731 0.46089667
2.6067159 0.39104706 0.46151403
2.6068847 0.41445157 0.46216893
2.6070502 0.43792373 0.46286055
2.6072202 0.46146879 0.46359062
2.6073866 0.48508924 0.46435788
2.6075559 0.50879031 0.46516392
2.6077278 0.53257608 0.4660089
2.6078966 0.55644941 0.46689218
2.6080682 0.58041579 0.46781516
2.6082387 0.60447848 0.46877748
2.608412 0.62864274 0.4697803
1.9886127 0.64870965 0.46197218
2.6085842 0.65291208 0.47082326
1.9887507 0.66808379 0.46334594
2.6087589 0.67729169 0.4719075
1.9888898 0.6875751 0.4647637
1.9890285 0.70718706 0.46622574
2.5790725 0.71803582 0.46874109
2.6089351 0.70178592 0.47303322
1.989172 0.72692579 0.46773395
1.989313 0.74679291 0.46928725
2.5792487 0.74248803 0.46993712
1.9894556 0.76679415 0.4708873
2.5794225 0.7670663 0.47117493
1.9895988 0.78693366 0.4725346
2.5796001 0.79177713 0.4724561
1.9897437 0.80721641 0.47423011
1.98989 0.82764697 0.47597459
1.9900359 0.84822935 0.47776836
1.9901854 0.8689701 0.47961324
1.9904137 0.88990802 0.46142909
1.990566 0.91097981 0.4632965
1.9907176 0.93222356 0.46521446
1.9908694 0.95364505 0.46718413
1.9910247 0.97525144 0.46920717
1.9911798 0.99704665 0.47128379
2.6138873 1.3666406 0.46305537
2.5935068 -1.4738997 0.49526563
1.9762895 -1.0777771 0.49715984
1.9764471 -1.0555087 0.49485469
1.9766036 -1.0334442 0.49260849
1.9767592 -1.0115777 0.49042019
1.9769158 -0.98990422 0.48828912
1.9770694 -0.96841574 0.48621321
1.9772205 -0.94710708 0.4841916
1.9773722 -0.92597401 0.48222399
1.9775215 -0.90500998 0.48030877
1.9775907 -0.88417488 0.49847367
1.9777361 -0.86353445 0.49658471
1.9778829 -0.84304923 0.49474838
1.9780289 -0.82271367 0.4929634
1.9781724 -0.80252206 0.4912284
1.9783149 -0.78247064 0.48954302
1.9784573 -0.76255506 0.48790669
2.598304 -0.7726813 0.49926731
1.9785967 -0.74276996 0.4863179
2.5984819 -0.7480247 0.49802333
2.598655 -0.72348773 0.49682286
2.5988317 -0.69906807 0.49566692
2.5990036 -0.67475897 0.49455348
2.5991766 -0.6505574 0.49348316
2.5993493 -0.62645859 0.49245518
2.5995197 -0.60245782 0.49146885
2.5996912 -0.57855147 0.49052435
2.5998602 -0.55473471 0.4896206
2.6000307 -0.53100407 0.48875803
2.600199 -0.50735486 0.48793554
2.6003666 -0.48378325 0.48715311
2.600534 -0.46028537 0.4864105
2.6007028 -0.43685752 0.4857077
2.6008694 -0.41349521 0.48504376
2.6010356 -0.39019492 0.48441878
2.6012013 -0.36695281 0.48383245
2.6013649 -0.3437649 0.48328426
2.601532 -0.32062817 0.482775
2.6016967 -0.29753813 0.48230341
2.60186 -0.27449128 0.48186949
2.6020265 -0.25148442 0.48147386
2.6021886 -0.2285132 0.48111504
2.6023524 -0.20557459 0.48079395
2.6025164 -0.18266486 0.48051023
2.6026802 -0.15978037 0.48026365
2.6028438 -0.13691762 0.48005411
2.6046369 0.11414447 0.48018199
2.6047993 0.13702048 0.48041475
2.6049616 0.15992042 0.48068461
2.6051261 0.18284802 0.48099205
2.6052892 0.20580658 0.48133653
2.6054549 0.22880004 0.48171896
2.6056185 0.25183159 0.48213854
2.605782 0.27490506 0.48259589
2.6059489 0.29802442 0.48309168
2.6061137 0.32119283 0.48362523
2.6062787 0.34441423 0.48419714
2.6064448 0.3676925 0.48480776
2.6066113 0.39103135 0.48545718
2.6067801 0.41443494 0.48614606
2.6069453 0.43790609 0.48687354
2.6071157 0.46145028 0.48764154
2.6072819 0.48506981 0.48844865
2.6074536 0.50877041 0.48929688
2.6076233 0.53255475 0.49018529
2.6077929 0.5564273 0.49111453
2.6079643 0.58039266 0.49208537
2.6081347 0.6044544 0.49309763
2.6083083 0.62861776 0.49415249
1.9885329 0.64868367 0.48131096
2.6084805 0.65288609 0.49524957
1.9886698 0.66805661 0.48274195
2.6086555 0.67726481 0.4963901
1.9888092 0.68754721 0.48421913
1.9889482 0.70715851 0.48574248
2.6088297 0.70175755 0.49757388
1.98909 0.72689581 0.48731339
2.6090055 0.72636944 0.49880171
1.9892312 0.74676222 0.48893178
1.9893737 0.76676255 0.49059877
1.9895196 0.78690237 0.49231568
1.9896625 0.8071835 0.49408168
1.9898096 0.82761353 0.49589938
1.9899555 0.84819508 0.49776825
1.990334 0.88987237 0.48150903
1.9904845 0.91094249 0.48345727
1.9906371 0.93218583 0.48545894
1.9907886 0.95360631 0.4875142
1.9909422 0.97521102 0.48962492
1.9910992 0.9970063 0.49179235
2.6137838 1.3665864 0.48968995
2.5719121 -1.4616275 0.51795208
2.5972271 -0.92342848 0.50769222
2.5974116 -0.89794594 0.50617135
2.5975912 -0.87261248 0.5046975
2.5977719 -0.84742486 0.5032711
2.5560546 -0.83381611 0.51971054
2.59795 -0.82237679 0.50189078
2.5566192 -0.80929357 0.51836413
2.5579145 -0.78512102 0.51721257
2.5981293 -0.79746443 0.50055671
2.5622354 -0.7619552 0.5167169
2.5688148 -0.73948443 0.51671761
2.575197 -0.71695685 0.51671833
2.5813811 -0.69437402 0.51671898
2.5873678 -0.67173803 0.5167197
2.5931554 -0.6490503 0.51672035
2.5987449 -0.62631291 0.51672113
2.5994153 -0.60243362 0.5157854
2.599587 -0.57852829 0.51479417
2.5997555 -0.55471241 0.51384568
2.599926 -0.53098273 0.51294041
2.6000943 -0.50733447 0.51207721
2.6002619 -0.48376375 0.51125604
2.6004312 -0.46026716 0.51047707
2.6005979 -0.43683988 0.5097391
2.600764 -0.41347849 0.50904226
2.60093 -0.3901791 0.50838625
2.6010962 -0.36693799 0.50777102
2.6012616 -0.34375122 0.50719607
2.6014264 -0.32061511 0.50666118
2.6015935 -0.29752633 0.50616676
2.6017561 -0.27448031 0.5057112
2.6019199 -0.25147414 0.50529552
2.6020849 -0.22850409 0.50491947
2.5604594 -0.20226522 0.51998466
2.6022489 -0.20556641 0.50458252
2.6024127 -0.18265757 0.50428468
2.5606205 -0.17972428 0.51967782
2.5607796 -0.15720807 0.51941067
2.6025739 -0.15977384 0.5040254
2.5609407 -0.13471338 0.51918405
2.6027379 -0.13691205 0.50380564
2.5611014 -0.11223658 0.51899743
2.6029034 -0.11406849 0.50362486
2.5612607 -0.089774169 0.51885045
2.6030653 -0.091239452 0.50348228
2.5614235 -0.06732285 0.51874411
2.6032288 -0.068421632 0.50337869
2.5615821 -0.044878937 0.5186767
2.60339 -0.045611415 0.5033133
2.5617433 -0.022439159 0.51864964
2.6035538 -0.022805391 0.50328702
2.5619044 0 0.51866239
2.6037169 0 0.50329924
2.5620635 0.022441963 0.51871443
2.6038785 0.022808235 0.50334978
2.5622244 0.044890191 0.51880676
2.6040423 0.045622844 0.50343943
2.5623832 0.067348078 0.51893848
2.6042042 0.068447269 0.50356728
2.5625427 0.089819111 0.5191102
2.6043684 0.091285132 0.50373435
2.5627043 0.11230683 0.51932228
2.6045308 0.11413981 0.50393975
2.5628643 0.13481456 0.51957405
2.6046929 0.13701488 0.50418401
2.5630262 0.15734598 0.51986635
2.6048574 0.15991403 0.50446767
2.6050222 0.18284072 0.50479037
2.6051855 0.20579839 0.50515193
2.6053505 0.22879086 0.50555313
2.6055126 0.25182137 0.50599319
2.6056786 0.27489412 0.5064736
2.6058452 0.29801255 0.50699395
2.6060081 0.32117981 0.50755352
2.6061757 0.34440061 0.50815421
2.6063392 0.36767763 0.50879455
2.6065078 0.39101583 0.50947648
2.6066744 0.41441813 0.51019907
2.606842 0.43788877 0.51096302
2.6070106 0.46143168 0.51176864
2.6071773 0.48505032 0.51261574
2.6073489 0.50874996 0.51350594
2.6075172 0.53253311 0.51443809
2.6076884 0.55640501 0.51541358
2.6078601 0.58036947 0.51643252
2.6043146 0.60356903 0.51675755
2.5989313 0.62635791 0.5167582
2.5933487 0.64909875 0.51675886
2.5875676 0.67178994 0.51675963
2.5815871 0.69442946 0.51676017
2.5754092 0.71701592 0.51676095
2.569242 0.73960745 0.51680356
2.6091816 0.75110483 0.50007403
2.5683062 0.76376057 0.51794118
2.6093612 0.77596945 0.50139195
2.5676312 0.78810346 0.51917732
2.6095374 0.80096602 0.50275463
2.6136806 1.3665324 0.51640052
2.555521 -0.90860009 0.52427667
2.5556986 -0.88352543 0.52270532
2.555877 -0.85859931 0.52118361
2.5564761 -0.76024252 0.53996384
2.5566487 -0.73598224 0.53861797
2.5568228 -0.71184134 0.53732044
2.5569921 -0.68781358 0.53606933
2.5571644 -0.66389656 0.5348658
2.557333 -0.64008421 0.53370786
2.5575025 -0.6163733 0.53259605
2.5576718 -0.59275919 0.53152961
2.5578403 -0.56923771 0.5305081
2.5580063 -0.54580432 0.52953064
2.5581739 -0.52245569 0.52859771
2.5583408 -0.49918744 0.52770847
2.5585039 -0.47599491 0.52686185
2.5586703 -0.45287561 0.52605903
2.5588338 -0.42982453 0.52529848
2.5589998 -0.40683863 0.52458078
2.5591609 -0.38391307 0.52390438
2.5593257 -0.36104539 0.52327067
2.5594881 -0.33823097 0.52267808
2.5596511 -0.31546649 0.52212703
2.559813 -0.29274818 0.521617
2.5599747 -0.27007246 0.52114785
2.5601363 -0.24743576 0.52071959
2.560298 -0.22483455 0.52033192
2.5631883 0.17990449 0.52019888
2.5633469 0.20249332 0.52057111
2.5635097 0.2251166 0.52098465
2.5636714 0.24777742 0.5214386
2.5638342 0.27047962 0.52193356
2.5639966 0.2932266 0.5224694
2.5641589 0.31602207 0.52304655
2.5643218 0.33886972 0.52366513
2.5644851 0.36177322 0.52432549
2.5646491 0.38473639 0.52502793
2.5648134 0.40776291 0.52577257
2.5649784 0.43085665 0.52655983
2.5651443 0.45402148 0.52739006
2.5653088 0.47726095 0.52826315
2.5654771 0.50057989 0.52918047
2.5656428 0.52398109 0.530141
2.5658112 0.54746962 0.53114635
2.5659788 0.57104892 0.53219604
2.5661488 0.59472382 0.53329128
2.5663199 0.61849833 0.53443223
2.5664878 0.64237559 0.53561842
2.5666602 0.66636193 0.53685194
2.5668321 0.69046044 0.53813225
2.5670049 0.71467608 0.53946024
2.5717061 1.3445866 0.53448921
2.5719149 1.3735143 0.53701252
2.5517569 -1.4501731 0.54057527
2.5554175 -0.90856326 0.54907566
2.5555944 -0.88348943 0.54742992
2.5557749 -0.85856503 0.54583669
2.5559502 -0.83378208 0.54429346
2.5561268 -0.8091377 0.54280096
2.5563009 -0.78462571 0.5413577
2.5570607 -0.66386968 0.55910742
2.5572286 -0.64005804 0.55789685
2.5573997 -0.61634856 0.55673504
2.5575671 -0.59273493 0.55561984
2.5577352 -0.56921434 0.55455196
2.5579031 -0.54578227 0.55353057
2.5580707 -0.52243459 0.55255532
2.5582378 -0.49916732 0.55162585
2.5584004 -0.47597566 0.55074078
2.5585663 -0.45285723 0.54990149
2.5587304 -0.42980713 0.54910654
2.5588958 -0.40682212 0.54835629
2.559057 -0.38389748 0.5476492
2.5592217 -0.36103073 0.5469867
2.559386 -0.33821747 0.5463677
2.5595465 -0.31545359 0.54579109
2.5597103 -0.29273644 0.54525834
2.5598707 -0.27006149 0.54476774
2.5600336 -0.24742584 0.54432029
2.5601952 -0.22482552 0.54391503
2.5603547 -0.20225696 0.54355174
2.5605159 -0.17971693 0.54323089
2.5606771 -0.15720177 0.54295212
2.5608377 -0.13470797 0.54271519
2.5609987 -0.11223207 0.54252011
2.5611577 -0.089770563 0.54236645
2.5613184 -0.067320086 0.54225475
2.5614772 -0.044877101 0.54218435
2.5616379 -0.022438236 0.54215598
2.5617993 0 0.54216939
2.5619581 0.022441041 0.54222375
2.562119 0.044888344 0.54232025
2.5622787 0.067345329 0.54245812
2.5624397 0.08981549 0.54263788
2.5626013 0.11230232 0.54285961
2.5627613 0.13480915 0.54312283
2.5629234 0.15733968 0.54342842
2.5630815 0.179897 0.5437752
2.5632441 0.2024852 0.54416513
2.5634069 0.22510757 0.54459745
2.5635664 0.24776728 0.54507148
2.56373 0.27046862 0.54558903
2.5638919 0.29321465 0.54614908
2.5640545 0.31600919 0.54675239
2.5642192 0.33885616 0.54739946
2.5643809 0.36175853 0.54808939
2.5645468 0.38472107 0.54882407
2.5647097 0.40774643 0.54960215
2.5648744 0.43083918 0.55042505
2.5650401 0.45400307 0.5512929
2.5652065 0.4772419 0.55220592
2.5653737 0.50055969 0.55316454
2.5655398 0.52395999 0.5541687
2.5657084 0.54744768 0.55521965
2.5658758 0.57102603 0.55631691
2.5660443 0.59469962 0.5574615
2.5662131 0.61847258 0.55865365
2.5663855 0.64234996 0.55989456
2.5671771 0.73901302 0.54083604
2.567354 0.76347744 0.54226142
2.567528 0.78807181 0.54373533
2.5516531 -1.4501143 0.56732124
2.5553133 -0.90852624 0.57396126
2.5554924 -0.88345414 0.57224137
2.5556705 -0.85852998 0.57057536
2.5558476 -0.83374864 0.56896263
2.5560243 -0.80910522 0.56740248
2.5561976 -0.78459406 0.56589365
2.5563729 -0.76021188 0.56443667
2.556545 -0.73595238 0.56302971
2.5567188 -0.71181238 0.56167328
2.5568881 -0.68778557 0.56036544
2.5574658 -0.59271151 0.57979894
2.5576317 -0.56919134 0.57868403
2.5577996 -0.54576021 0.57761824
2.557965 -0.52241302 0.57660007
2.5581317 -0.49914664 0.57563007
2.5582964 -0.47595632 0.57470691
2.5584624 -0.45283881 0.57383114
2.5586259 -0.4297896 0.57300144
2.5587912 -0.40680546 0.57221848
2.5589561 -0.38388237 0.57148153
2.5591173 -0.36101601 0.5707894
2.5592816 -0.33820367 0.5701434
2.5594437 -0.31544095 0.56954217
2.5596056 -0.29272446 0.56898576
2.5597672 -0.27005056 0.56847405
2.5599287 -0.24741569 0.56800681
2.5600903 -0.22481631 0.56758398
2.5602512 -0.20224878 0.56720513
2.5604124 -0.17970966 0.56687039
2.5605717 -0.1571953 0.56657904
2.5607343 -0.13470252 0.56633222
2.5608952 -0.11222755 0.56612867
2.5610542 -0.089766935 0.56596833
2.5612147 -0.067317367 0.56585175
2.5613735 -0.044875283 0.56577826
2.5615346 -0.022437332 0.56574875
2.5616953 0 0.56576252
2.5618548 0.022440135 0.56581944
2.5620155 0.044886533 0.56592011
2.562175 0.067342602 0.56606388
2.5623362 0.089811869 0.56625164
2.5624979 0.11229778 0.56648296
2.5626576 0.1348037 0.56675756
2.5628178 0.1573332 0.56707603
2.5629783 0.17988975 0.56743842
2.5631406 0.20247704 0.56784528
2.563302 0.22509836 0.56829607
2.5634632 0.24775732 0.56879109
2.5636275 0.2704578 0.56933135
2.563787 0.29320264 0.56991529
2.5639517 0.31599653 0.57054532
2.5641148 0.33884236 0.57122016
2.5642765 0.36174378 0.57194006
2.5644422 0.38470536 0.5727067
2.564605 0.40772977 0.57351863
2.5647752 0.43082249 0.57437855
2.5649335 0.4539842 0.57528251
2.5651042 0.47722286 0.57623625
2.5652683 0.50053912 0.57723588
2.5654359 0.52393883 0.57828414
2.5656042 0.54742545 0.57938069
2.5665607 0.66633606 0.56118459
2.5667288 0.69043267 0.56252217
2.5669053 0.71464837 0.56391108
2.5670767 0.73898411 0.56534904
2.5672498 0.76344639 0.5668382
2.5674264 0.78804058 0.56837952
2.5716033 1.3445328 0.56093442
2.5718117 1.3734592 0.56358248
2.5515501 -1.4500557 0.59415644
2.5552096 -0.90848941 0.59893793
2.5553899 -0.88341868 0.59714341
2.5555661 -0.85849488 0.59540451
2.5557451 -0.8337152 0.59372205
2.5559194 -0.80907208 0.59209347
2.5560944 -0.78456235 0.59051937
2.5562692 -0.76018095 0.58899879
2.5564415 -0.73592257 0.58753067
2.5566149 -0.71178347 0.58611518
2.5567839 -0.68775755 0.58475035
2.5569563 -0.66384256 0.58343756
2.5571277 -0.64003283 0.58217514
2.5572953 -0.61632335 0.58096188
2.558028 -0.4991264 0.59972644
2.5581923 -0.47593695 0.5987646
2.5583582 -0.45282039 0.59785211
2.5585239 -0.42977244 0.5969882
2.5586872 -0.40678895 0.59617203
2.5588515 -0.38386667 0.59540403
2.5590141 -0.36100143 0.59468329
2.5591764 -0.33818975 0.59400982
2.5593386 -0.31542799 0.59338337
2.5595024 -0.29271263 0.59280413
2.559664 -0.27003968 0.59227103
2.5598254 -0.24740572 0.59178424
2.5599866 -0.2248072 0.59134358
2.5601463 -0.20224048 0.59094858
2.5603089 -0.1797024 0.59060019
2.560468 -0.15718894 0.59029657
2.5606287 -0.13469698 0.59003901
2.5607913 -0.11222299 0.5898273
2.5609505 -0.089763299 0.58966023
2.5611112 -0.06731464 0.58953887
2.5612698 -0.044873469 0.58946234
