# .PCD v0.7 - Point Cloud Data file format
VERSION 0.7
FIELDS x y z
SIZE 4 4 4
TYPE F F F
COUNT 1 1 1
WIDTH 148
HEIGHT 1
VIEWPOINT 0 0 0 1 0 0 0
POINTS 148
DATA ascii
2.6061711 -0.09134832 -0.12222634
2.6028562 -0.068411842 -0.12203809
2.6031301 -0.045606859 -0.12202752
2.6034274 -0.022804284 -0.12202741
2.6094582 0 -0.12230539
2.5668116 -0.13502221 -0.097795516
2.5610244 -0.11223321 -0.09753383
2.5524626 -0.089465789 -0.097174183
2.5507841 -0.067043208 -0.097084202
2.5510619 -0.044694625 -0.097076155
2.5513532 -0.022348149 -0.097076058
2.5558994 0 -0.097245306
2.5627697 0.02244815 -0.09751045
2.5633025 -0.13483763 -0.075030632
2.5547302 -0.11195737 -0.074748136
2.556179 -0.089596055 -0.074764699
2.533669 -0.066593364 -0.074086405
2.5133183 -0.044033356 -0.073477238
2.5358477 -0.022212332 -0.074127354
2.5573921 0 -0.074754268
2.5564756 0.022393018 -0.074730352
2.5716069 -0.13527445 -0.052580886
2.5614347 -0.11225119 -0.052350789
2.5668566 -0.089970313 -0.052443482
2.4660943 -0.06481728 -0.050371274
2.4529018 -0.042974859 -0.050092198
2.4704859 -0.021639805 -0.05044549
2.5680928 0 -0.052436538
2.5631897 0.022451829 -0.052338433
2.5662808 -0.11246357 -0.029821713
2.5776203 -0.090347588 -0.029943136
2.4329829 -0.063947 -0.028255355
2.4200034 -0.042398479 -0.028099228
2.4406981 -0.021378884 -0.028336255
2.5790071 0 -0.029940862
2.568033 0.022494253 -0.029814601
2.5635989 -0.11234603 -0.0071906936
2.3614736 -0.08277148 -0.0066214604
2.361738 -0.062074441 -0.0066204239
2.3620057 -0.041382357 -0.0066199037
2.3622758 -0.020691959 -0.0066198991
2.3641663 0 -0.0066249426
2.5653517 0.022470767 -0.007188987
2.3294394 -0.12253571 0.014006583
2.3186922 -0.10161336 0.013936075
2.3185422 -0.081266701 0.013930361
2.318809 -0.060946122 0.013928222
2.3190753 -0.040630218 0.01392715
2.3193405 -0.020315873 0.013927138
2.3203583 0 0.013932716
2.320286 0.020324156 0.013932818
2.3315763 0.040849235 0.014002224
2.314615 -0.1217559 0.034332108
2.3078015 -0.10113608 0.03421659
2.3035235 -0.08074028 0.034141365
2.3037853 -0.060551248 0.034136076
2.3040435 -0.040366862 0.034133356
2.3043032 -0.020184156 0.034133274
2.3045681 0 0.034135886
2.3093781 0.020228609 0.034208447
2.3167257 0.040589053 0.034321237
2.3130376 -0.12167291 0.05471478
2.3082752 -0.10115685 0.054579075
2.3133485 -0.081084661 0.054680143
2.3136086 -0.060809441 0.0546716
2.3138697 -0.040539015 0.054667283
2.3141332 -0.02027026 0.054667216
2.3143983 0 0.054671381
2.3098497 0.020232739 0.054566026
2.3151486 0.040561419 0.054697495
2.334331 -0.12279302 0.075820975
2.3212261 -0.10172439 0.07536348
2.3232605 -0.081432082 0.075403489
2.3235204 -0.06106995 0.075391658
2.3237824 -0.040712684 0.075385705
2.3240469 -0.020357097 0.0753856
2.3243136 0 0.075391367
2.3227935 0.020346118 0.075344943
2.3364196 0.04093409 0.075795658
2.3468194 -0.10284598 0.096910223
2.3484128 0.020570526 0.096886747
2.3539569 -0.10315877 0.11799888
2.3555567 0.020633103 0.11797038
2.361021 -0.10346835 0.1392277
2.3626239 0.020695006 0.13919397
2.3681347 -0.1037801 0.16060655
2.3697391 0.020757331 0.1605674
2.375298 -0.10409401 0.18214022
2.3769069 0.020820117 0.18209581
2.3825102 -0.10441008 0.20383352
2.3841224 0.02088332 0.20378369
2.3897808 -0.1047287 0.22569229
2.3913965 0.020947037 0.22563699
2.3971107 -0.10504992 0.24772182
2.3272977 -0.040774275 0.2403135
2.3987296 0.021011269 0.24766093
2.3002331 -0.040300105 0.25801456
2.4044993 -0.10537373 0.26992741
2.3211708 -0.0610082 0.26041305
2.3374338 -0.020474358 0.26215711
2.406121 0.021076012 0.2698608
2.3007572 -0.060471658 0.27866769
2.2838037 -0.040012259 0.27656123
2.3120759 -0.020252241 0.27995268
2.4119503 -0.10570025 0.29231486
2.2886398 -0.060153175 0.29768032
2.2731972 -0.03982643 0.29561499
2.2986703 -0.020134816 0.29889321
2.4135706 0.021141266 0.29224196
2.4194593 -0.10602932 0.31488916
2.281522 -0.059966095 0.31721795
2.266886 -0.03971586 0.31512249
2.2908769 -0.020066552 0.31842086
2.4210851 0.021207089 0.31481066
2.4365165 -0.12816828 0.33911932
2.4248874 -0.1062672 0.33735824
2.2784603 -0.059885625 0.33727828
2.2643824 -0.039671998 0.33513004
2.287466 -0.020036675 0.33850747
2.4265442 0.021254906 0.33727798
2.4383264 0.042719495 0.33895463
2.4248431 -0.12755422 0.35931936
2.4176371 -0.10594947 0.3581003
2.2801979 -0.059931293 0.35809067
2.2663176 -0.039705902 0.35584256
2.2889197 -0.020049406 0.35935003
2.419318 0.021191608 0.35801938
2.4271119 0.042523019 0.3592141
2.4330637 -0.085280769 0.36026084
2.4341936 0 0.3602069
2.4166467 -0.10590606 0.37975216
2.2747469 -0.039853584 0.37772495
2.4182816 0.021182531 0.37965927
2.4202116 -0.1273106 0.38047302
2.4334736 -0.085295133 0.38226429
2.2896612 -0.06018002 0.38027442
2.2988634 -0.020136507 0.38168558
2.43455 0 0.38219866
2.4228323 0.04244804 0.38041747
2.4418466 -0.12844867 0.40597039
2.4318323 -0.10657155 0.40413472
2.3135808 -0.060808711 0.40522218
2.2952907 -0.04021351 0.40194154
2.3229527 -0.020347515 0.40673882
2.4333436 0.021314465 0.40401363
2.4436378 0.042812556 0.40576953
2.3230393 -0.040699668 0.42792261
2.3391025 -0.061479505 0.43096426
