# .PCD v0.7 - Point Cloud Data file format
VERSION 0.7
FIELDS x y z
SIZE 4 4 4
TYPE F F F
COUNT 1 1 1
WIDTH 1473
HEIGHT 1
VIEWPOINT 0 0 0 1 0 0 0
POINTS 1473
DATA ascii
3.3705094 0.71916884 -0.10073999
3.3096697 0.73655456 -0.099110603
3.3307879 0.77193457 -0.099941656
3.2981048 0.79486281 -0.099166088
3.2174702 0.80531234 -0.096949972
3.1907878 0.82839924 -0.096360922
3.2136722 0.86445606 -0.097276963
3.2030573 0.89175856 -0.097188376
3.4455969 0.99188364 -0.10480721
3.440167 1.0230337 -0.10491059
3.4488587 1.0585856 -0.10545438
3.0421176 -0.99237579 -0.065336846
3.0305557 -0.95931739 -0.064905569
3.0297999 -0.92996055 -0.064712435
3.0365703 -0.90301257 -0.06468562
3.0507598 -0.87822193 -0.064821534
3.0740681 -0.85584682 -0.065154992
3.1169198 -0.83843029 -0.065905049
2.9179299 -0.70323843 -0.061285563
2.916271 -0.67586726 -0.061124038
2.9827232 -0.66379386 -0.062392592
3.0552077 -0.65189266 -0.063786931
3.0378482 -0.62041956 -0.063308604
3.0666409 -0.59836775 -0.063796967
2.8892846 -0.40759289 -0.059578918
2.9461813 -0.38933164 -0.060679514
2.9511843 -0.36372134 -0.060714606
2.9561996 -0.3380802 -0.060754534
2.9612291 -0.31240404 -0.060799327
2.96627 -0.28668836 -0.060848933
2.9713283 -0.2609295 -0.060903475
2.9764035 -0.23512301 -0.060962945
2.9814956 -0.20926455 -0.061027355
2.6073232 -0.16006541 -0.05333779
2.6032565 -0.13693932 -0.053228017
2.6193867 -0.11479086 -0.053535216
3.0020518 -0.10522424 -0.06133496
3.0072429 -0.07904049 -0.06142452
3.0124574 -0.052778278 -0.061519224
3.0176961 -0.026433002 -0.061619118
3.0229592 0 -0.061724219
3.0282478 0.026525429 -0.061834574
3.0335641 0.053148068 -0.061950259
3.0389075 0.079872742 -0.062071282
3.044281 0.10670441 -0.062197745
3.049685 0.13364807 -0.062329683
3.0551193 0.1607087 -0.062467121
3.0605867 0.18789157 -0.062610164
3.0660872 0.21520184 -0.062758841
3.0716243 0.24264504 -0.062913269
3.0771959 0.27022633 -0.063073441
3.0828047 0.29795137 -0.063239478
3.0884514 0.32582572 -0.06341143
3.094141 0.35385558 -0.063589446
3.0998685 0.3820461 -0.063773483
3.1056395 0.4104037 -0.063963711
3.1114533 0.43893433 -0.064160176
3.1173131 0.46764442 -0.06436301
3.1232176 0.49653995 -0.064572245
3.1291702 0.52562773 -0.064788014
3.1351714 0.5549143 -0.065010414
3.1239252 0.58118832 -0.064880289
3.3115225 0.73696691 -0.069270417
3.3374467 0.77347779 -0.069951735
3.2979743 0.7948314 -0.069267675
3.2299864 0.8084451 -0.06798584
3.2199054 0.83595884 -0.067925178
3.2492673 0.87403089 -0.068703443
3.4414463 0.95812809 -0.072941586
3.4270556 0.98654616 -0.072816938
3.4432809 1.0239598 -0.073349446
3.4512098 1.0593072 -0.073713183
3.4514952 1.0925651 -0.073920846
3.0932026 -0.97914815 -0.037666608
3.0961275 -0.95031905 -0.037599418
3.0999455 -0.92185903 -0.037546281
3.1090622 -0.8950054 -0.037560306
3.143409 -0.87515193 -0.037881184
2.9465132 -0.71012712 -0.035186831
2.9200118 -0.67673421 -0.034798235
2.9899988 -0.66541302 -0.035561457
3.061754 -0.65328938 -0.036345419
3.0441129 -0.62169898 -0.036069978
3.0732303 -0.59965348 -0.036351364
2.8839493 -0.48443633 -0.033950143
2.9306905 -0.4659313 -0.034451015
2.9356589 -0.44039354 -0.034462754
2.9406383 -0.41483739 -0.03447723
2.9456272 -0.38925844 -0.034494422
2.9506266 -0.36365262 -0.034514338
2.9556396 -0.33801612 -0.034537021
2.9606671 -0.31234473 -0.034562472
2.9657061 -0.28663385 -0.034590658
2.9707611 -0.2608797 -0.034621637
2.9758332 -0.23507795 -0.034655422
2.9809229 -0.20922436 -0.034692019
2.6051588 -0.15993254 -0.030301409
2.603626 -0.13695876 -0.030268464
2.6231642 -0.11495639 -0.03048273
3.0014665 -0.10520373 -0.03486678
3.0066555 -0.079025045 -0.034917679
3.0118685 -0.052767958 -0.034971513
3.0171037 -0.026427813 -0.035028268
3.0223639 0 -0.035087992
3.0276511 0.0265202 -0.035150722
3.0329647 0.053137563 -0.035216462
3.0383072 0.079856962 -0.035285264
3.0436771 0.10668324 -0.035357125
3.0490794 0.13362151 -0.035432119
3.0545123 0.16067676 -0.035510242
3.0599773 0.18785416 -0.035591543
3.0654774 0.21515906 -0.03567607
3.0710111 0.2425966 -0.035763826
3.0765829 0.27017251 -0.035854898
3.0821903 0.297892 -0.035949279
3.0878351 0.32576072 -0.036047015
3.0935218 0.35378477 -0.03614819
3.0992484 0.38196966 -0.036252812
3.1050177 0.41032153 -0.036360946
3.110831 0.43884653 -0.036472633
3.1166899 0.46755093 -0.036587942
3.1225936 0.49644074 -0.036706887
3.1285448 0.52552271 -0.036829542
3.1345451 0.55480343 -0.036955971
3.1405973 0.58429009 -0.037086245
3.1467006 0.61398911 -0.037220396
3.1528578 0.64390796 -0.037358508
3.138869 0.66974354 -0.037260834
3.3457613 0.77540481 -0.039871957
3.2978454 0.79480034 -0.039382391
3.2404931 0.81107485 -0.038780853
3.2221351 0.83653772 -0.038647361
3.4859934 0.97053039 -0.042009667
3.4848697 1.0031891 -0.042100403
3.4408793 1.0232456 -0.041675646
3.5017481 1.0748194 -0.04252528
3.0934224 -0.97921777 -0.009092425
3.0963724 -0.95039415 -0.0090762787
3.1001387 -0.92191643 -0.0090632997
3.1091743 -0.89503765 -0.0090664476
2.9237595 -0.67760271 -0.0084102051
3.0701151 -0.65507346 -0.0087968344
3.0520356 -0.623317 -0.0087290518
2.9152994 -0.54237467 -0.0083095236
2.9202442 -0.51687288 -0.0083103944
2.9251909 -0.49136397 -0.008311905
2.9301488 -0.4658452 -0.0083140787
2.9351137 -0.44031173 -0.0083169034
2.9400885 -0.41475978 -0.0083203865
2.9450729 -0.38918516 -0.0083245253
2.9500697 -0.36358398 -0.0083293272
2.95508 -0.33795214 -0.0083347969
2.9601038 -0.3122853 -0.0083409306
2.9651406 -0.28657919 -0.0083477292
2.6209929 -0.23016453 -0.0073728957
2.6072881 -0.20596449 -0.0073289876
2.593734 -0.18204843 -0.0072861253
2.5943968 -0.15927185 -0.0072837891
2.5950592 -0.13650812 -0.0072820121
2.5957196 -0.11375368 -0.0072807902
2.6105809 -0.091502883 -0.0073199463
2.6256373 -0.0690106 -0.007360186
3.0986295 0.38189337 -0.0087487763
3.1043963 0.41023943 -0.0087748682
3.1102078 0.43875861 -0.0088018198
3.1160655 0.46745726 -0.0088296467
3.1219714 0.49634182 -0.0088583613
3.1279211 0.52541792 -0.0088879606
3.1339214 0.55469304 -0.0089184744
3.1399717 0.58417368 -0.0089499112
3.1460764 0.61386728 -0.0089822924
3.1522331 0.64378035 -0.0090156244
3.1584456 0.67392063 -0.0090499287
3.1647134 0.7042951 -0.0090852166
3.1710379 0.73491132 -0.0091215027
3.1355431 0.75568449 -0.0090380954
3.2267439 0.83773428 -0.0093418509
3.4887629 1.0043098 -0.010173339
3.4528751 1.0268129 -0.01009453
2.8959165 -0.91669756 0.01823909
2.8356106 -0.68339896 0.017514082
2.8698311 -0.66510445 0.017688783
2.8948119 -0.64422947 0.017807292
2.8998291 -0.61873937 0.017804133
2.904825 -0.59325224 0.017802218
2.9098017 -0.567765 0.017801557
2.9147613 -0.54227459 0.017802157
2.9197071 -0.51677787 0.017804032
2.9246526 -0.49127352 0.017807266
2.9296055 -0.46575883 0.0178119
2.9345677 -0.44022983 0.017817941
2.939539 -0.41468227 0.017825386
2.9445217 -0.38911232 0.017834248
2.9495158 -0.36351573 0.017844528
2.9545236 -0.33788848 0.017856233
2.9595435 -0.31222618 0.017869357
2.5972188 -0.22807679 0.015655156
2.5918608 -0.2047458 0.015611451
2.5935574 -0.18203603 0.015611467
2.5942209 -0.15926105 0.015606465
2.5948842 -0.13649891 0.015602664
2.595546 -0.11374607 0.015600055
2.5951746 -0.090962872 0.015592434
2.6018698 -0.068385914 0.015628463
3.0936377 0.46409276 0.018783772
3.1272964 0.52531302 0.019041099
3.1332972 0.5545826 0.019106481
3.1393473 0.58405745 0.019173833
3.1454506 0.61374515 0.019243205
3.1516073 0.64365256 0.019314623
3.157819 0.67378694 0.019388119
3.1640882 0.70415592 0.019463731
3.1704075 0.73476523 0.019541444
3.1767545 0.76561666 0.019621149
3.1831241 0.79671574 0.019702839
3.1895185 0.82806969 0.019786555
3.1887214 0.85774446 0.019827461
3.1666601 0.88162524 0.019737545
2.9619906 -0.96623737 0.046149205
2.9511528 -0.93418258 0.0458511
2.9404552 -0.90253729 0.045560319
2.9298882 -0.87128747 0.045276601
2.919456 -0.84042352 0.044999901
2.9091461 -0.80993116 0.044729918
2.8989604 -0.77980071 0.044466577
2.8910122 -0.75057089 0.044242121
2.8872643 -0.72266388 0.044086199
2.8866553 -0.69570106 0.043982171
2.8893902 -0.66963744 0.043932784
2.894259 -0.64410645 0.04391934
2.899277 -0.61862153 0.043911576
2.9042771 -0.5931403 0.043906931
2.9092555 -0.56765842 0.04390534
2.9142213 -0.5421741 0.043906927
2.9191699 -0.5166828 0.043911614
2.9241123 -0.4911828 0.043919556
2.9290626 -0.46567252 0.043930959
2.9340224 -0.44014803 0.043945834
2.9389906 -0.4146049 0.043964162
2.9029937 -0.38362449 0.04337376
2.5972495 -0.22807948 0.038619217
2.5921252 -0.20476668 0.038514875
2.5935876 -0.18203816 0.038511433
2.5942512 -0.15926291 0.038499095
2.594913 -0.13650043 0.038489696
2.5955744 -0.11374731 0.038483251
2.5954275 -0.090971746 0.038467787
2.6018984 -0.068386666 0.038553335
4.4517875 0.39093715 0.066194847
4.459816 0.43103877 0.066367827
4.4678874 0.47135359 0.066546828
4.4760013 0.5118894 0.0667319
3.1509817 0.64352477 0.047636617
3.1571929 0.67365336 0.047817893
3.1634622 0.70401663 0.048004404
3.1697719 0.73461795 0.048195947
3.1761067 0.76546055 0.048392355
3.1824694 0.79655182 0.048593745
3.1888535 0.82789707 0.048800085
3.1953588 0.85952991 0.049012974
3.2056036 0.89246744 0.049288135
3.2235005 0.92794877 0.049686383
3.2540345 0.96768183 0.050285749
2.9618764 -0.96620017 0.073594913
2.9510381 -0.93414623 0.073119491
2.940341 -0.90250224 0.072655782
2.9297769 -0.87125438 0.07220339
2.9193413 -0.8403905 0.07176204
2.9090338 -0.80989987 0.071331546
2.8988464 -0.77977002 0.070911542
2.8909028 -0.75054246 0.070553698
2.8871512 -0.72263563 0.07030496
2.8865068 -0.6956653 0.070138194
2.8889301 -0.66953081 0.070051886
2.8937025 -0.64398265 0.070028141
2.8987248 -0.61850369 0.070015885
2.9037268 -0.59302795 0.070008546
2.9087112 -0.56755221 0.070006177
2.9136794 -0.54207325 0.070008785
2.9186332 -0.51658779 0.070016406
2.9235766 -0.4910928 0.070029117
2.884093 -0.45852309 0.068984501
2.6239448 -0.23042373 0.062222116
2.607686 -0.20599593 0.061791409
2.5941758 -0.18207945 0.061431125
2.5948315 -0.15929852 0.06141125
2.5954888 -0.13653071 0.061396148
2.5961449 -0.11377232 0.061385743
2.6114688 -0.091534011 0.061726749
2.6284513 -0.06908457 0.062111475
4.4758258 0.51186931 0.10641841
3.1628363 0.70387733 0.07654123
3.1691339 0.73447007 0.076846376
3.1754603 0.76530474 0.077159368
3.1818111 0.79638714 0.077480219
3.1881905 0.82772493 0.077809125
3.1948292 0.8593874 0.078151867
3.2054257 0.89241791 0.078599282
3.2233474 0.92790473 0.079234995
3.2539091 0.96764451 0.080191523
3.2913609 1.0102435 0.081329472
3.3298926 1.054072 0.082506575
2.9617617 -0.96616274 0.1010499
2.9509263 -0.93411082 0.1003972
2.9402251 -0.90246671 0.099760354
2.929662 -0.87122023 0.099139221
2.9192278 -0.84035784 0.098533258
2.90892 -0.80986822 0.097942136
2.8987341 -0.7797398 0.097365484
2.89079 -0.75051314 0.096874118
2.8870389 -0.72260755 0.096532606
2.8863513 -0.69562781 0.096302181
2.8885431 -0.6694411 0.096175976
2.8931479 -0.64385921 0.096137822
2.8981705 -0.61838549 0.096121043
2.9031754 -0.5929153 0.096111096
2.9081633 -0.56744534 0.09610799
2.8838058 -0.53651547 0.095144071
2.613261 -0.20643631 0.085027717
3.4457405 0.70372337 0.11407299
3.4172215 0.76048982 0.11355253
3.1704044 0.73476458 0.10556073
3.1811543 0.79622269 0.1063668
3.1875234 0.82755178 0.10681804
3.194304 0.85924613 0.10729337
3.2052655 0.89237326 0.10791996
3.2231903 0.92785949 0.10879296
2.9024584 -0.91876835 0.12559596
2.8995993 -0.88999707 0.12513012
2.8966706 -0.86140925 0.12467331
2.8936722 -0.8330012 0.12422547
2.8906033 -0.80476868 0.12378635
2.8875573 -0.7767334 0.12335981
2.8857281 -0.74919903 0.12299659
2.8859925 -0.72234565 0.12273347
2.8814609 -0.69444919 0.12227736
2.8619802 -0.6632849 0.12119948
2.6130548 -0.20642003 0.10813659
3.4456046 0.7036956 0.14508153
3.4001331 0.72548968 0.14342897
3.4457471 0.76683807 0.14563088
3.2290914 0.80822104 0.13732454
3.1635799 0.82133549 0.1348393
3.1885381 0.88771623 0.136545
3.1736741 -0.67716992 0.16251473
3.1857386 -0.62160629 0.1625499
2.6128476 -0.20640366 0.13125856
3.5248551 0.68777519 0.17985305
3.4580779 0.70624304 0.17675468
3.4300811 0.73187977 0.17564461
3.4806123 0.77459717 0.17857273
3.4881265 0.80839896 0.17931466
3.1634548 0.82130301 0.16367739
3.1884122 0.88768125 0.16574794
3.195755 -0.74063969 0.19326068
3.2013447 -0.71244723 0.19321391
3.2056751 -0.68399799 0.19310626
3.1767719 -0.64879191 0.1910155
3.2182076 -0.62794167 0.19316885
2.6126428 -0.20638748 0.15439743
3.465307 0.70771945 0.20836477
3.5154781 0.75010097 0.21176845
3.5245869 0.78438354 0.21272287
3.2432327 -0.72176921 0.22512051
3.2474134 -0.69290376 0.2249808
3.2127748 -0.6561448 0.22217433
2.6124349 -0.20637107 0.17755648
2.5903642 -1.5635521 0.23178896
2.5912585 -1.5332874 0.23065835
2.5921469 -1.5033159 0.22955649
2.5930252 -1.473626 0.22848238
2.5938959 -1.444211 0.22743572
2.5947578 -1.4150614 0.2264158
2.595614 -1.3861706 0.22542235
2.5964613 -1.3575295 0.22445463
2.5973017 -1.3291312 0.22351226
2.5981336 -1.3009676 0.22259466
2.5989614 -1.2730333 0.22170171
2.5997808 -1.2453192 0.22083263
2.600594 -1.2178196 0.21998718
2.6014016 -1.1905278 0.21916494
2.6022031 -1.1634372 0.21836552
2.602998 -1.136541 0.21758845
2.6037886 -1.1098343 0.21683362
2.6045728 -1.0833095 0.21610041
2.6053517 -1.0569615 0.21538861
2.6061258 -1.0307848 0.21469794
2.6068954 -1.0047735 0.21402808
2.6076622 -0.97892267 0.21337885
2.6084228 -0.95322561 0.21274969
2.6091774 -0.92767727 0.21214034
2.6099296 -0.90227348 0.2115508
2.6106761 -0.87700802 0.21098053
2.6114223 -0.85187775 0.21042976
2.6121595 -0.82687479 0.20989747
2.6128948 -0.80199653 0.20938402
2.6136289 -0.77723855 0.20888928
2.6143572 -0.75259477 0.20841263
2.6150849 -0.72806203 0.20795427
2.6158054 -0.70363396 0.20751348
2.6165271 -0.67930847 0.20709075
2.619158 -0.65555859 0.20683655
2.6248071 -0.63259411 0.20683716
2.6302552 -0.60958099 0.20683777
2.6355026 -0.58652121 0.20683849
2.640547 -0.56341606 0.20683913
2.6453881 -0.54026747 0.20683971
2.650027 -0.51707739 0.20684034
2.6544626 -0.49384749 0.20684098
2.6586957 -0.47057977 0.20684171
2.6627235 -0.44727555 0.20684233
2.6665473 -0.42393693 0.20684296
2.6701667 -0.40056565 0.20684361
2.6735811 -0.37716347 0.20684426
2.6767907 -0.35373223 0.20684491
2.6797953 -0.33027378 0.20684561
2.6825938 -0.30678976 0.20684627
2.6851864 -0.28328204 0.20684689
2.6875737 -0.25975251 0.20684759
2.6897535 -0.23620278 0.20684819
2.6122293 -0.20635483 0.20073971
2.6934965 -0.18905053 0.20684958
2.6975591 -0.11821665 0.20685153
2.6984997 -0.094584502 0.20685218
2.6992345 -0.070944987 0.20685293
2.6997604 -0.047299825 0.20685357
2.7000804 -0.0236509 0.20685425
2.700192 0 0.20685488
2.7000968 0.023651045 0.20685554
2.6997957 0.047300443 0.20685627
2.6992872 0.070946373 0.20685697
2.698571 0.094587006 0.20685764
2.6976471 0.1182205 0.20685826
2.6965172 0.14184514 0.20685898
2.6951807 0.16545904 0.20685968
2.6936367 0.18906038 0.20686033
2.6918857 0.21264735 0.20686099
2.6899288 0.23621817 0.20686167
2.6877651 0.25977102 0.20686233
2.6853957 0.28330413 0.20686303
2.6828208 0.30681571 0.20686376
2.6800389 0.33030382 0.20686442
2.6770518 0.35376674 0.20686509
2.6738591 0.37720269 0.20686577
2.6704612 0.40060982 0.20686643
2.6668596 0.42398655 0.20686719
2.6630523 0.44733077 0.20686786
2.6590409 0.47064084 0.20686856
2.654825 0.4939149 0.20686921
2.6519327 0.51744926 0.20698909
2.6526508 0.54175073 0.20740756
2.653372 0.56615257 0.20784374
2.6540985 0.59065968 0.20829792
2.6548259 0.61527544 0.20876998
2.6555588 0.64000547 0.20926042
2.6562922 0.66485304 0.20976907
2.6570327 0.68982464 0.21029666
2.6577752 0.7149235 0.21084297
2.6585217 0.74015516 0.21140841
2.6592705 0.76552391 0.21199304
2.6600275 0.79103655 0.21259761
2.6607852 0.81669593 0.21322173
2.66155 0.84250921 0.21386619
2.6623175 0.86848038 0.21453092
2.6630921 0.89461625 0.21521652
2.6638694 0.92092091 0.21592295
2.6646528 0.94740123 0.2166508
2.6654437 0.97406346 0.21740046
2.6662364 1.0009116 0.21817183
2.6670368 1.0279537 0.21896572
2.6678395 1.055194 0.21978204
2.6686547 1.0826429 0.22062197
2.6694727 1.110303 0.22148512
2.6702974 1.1381829 0.22237222
2.6711273 1.1662883 0.2232835
2.6719666 1.1946282 0.22421977
2.6728127 1.223209 0.22518124
2.673667 1.2520385 0.22616848
2.6745272 1.2811235 0.22718182
2.5902646 -1.5634918 0.25860035
2.5911584 -1.5332283 0.25733894
2.5920448 -1.5032567 0.25610942
2.5929232 -1.4735682 0.25491109
2.593796 -1.4441552 0.25374356
2.5946574 -1.4150066 0.25260565
2.5955114 -1.3861159 0.25149706
2.5963583 -1.3574758 0.25041735
2.5971985 -1.3290786 0.24936599
2.5980325 -1.3009169 0.24834244
2.59886 -1.2729837 0.24734621
2.5996788 -1.2452704 0.24637654
2.6004922 -1.2177719 0.24543329
2.6012995 -1.1904812 0.24451593
2.6021013 -1.1633917 0.24362406
2.5732746 -1.1235631 0.2399945
2.5740564 -1.0971612 0.23916192
2.5748315 -1.0709393 0.23835321
2.5756013 -1.0448922 0.23756811
2.5763683 -1.019015 0.23680647
2.5771291 -0.99330068 0.23606762
2.5778852 -0.96774429 0.23535135
2.5786369 -0.94234067 0.23465739
2.5853121 -0.91919214 0.23452316
2.6098282 -0.90223849 0.23602115
2.6105745 -0.87697399 0.23538491
2.6113191 -0.85184407 0.23477025
2.6120577 -0.82684255 0.23417653
2.6127946 -0.80196583 0.23360386
2.6135266 -0.77720815 0.23305169
2.614255 -0.75256532 0.23251991
2.6149828 -0.7280336 0.23200855
2.6157031 -0.70360643 0.23151676
2.6164246 -0.67928183 0.23104511
2.6171393 -0.65505338 0.2305927
2.6178555 -0.63091868 0.23016004
2.6185646 -0.6068716 0.22974622
2.6192739 -0.58290958 0.22935167
2.6199825 -0.55902821 0.22897618
2.6206856 -0.53522241 0.2286191
2.621388 -0.51148927 0.22828077
2.6220863 -0.48782405 0.22796074
2.6227851 -0.46422371 0.22765924
2.6234818 -0.44068384 0.22737592
2.6241767 -0.41720071 0.22711073
2.6248705 -0.39377052 0.22686355
2.6255629 -0.37038952 0.22663429
2.6262517 -0.34705362 0.22642267
2.6269417 -0.32375979 0.22622897
2.6276305 -0.30050397 0.22605292
2.6283178 -0.27728251 0.22589445
2.6290023 -0.25409162 0.22575334
2.629688 -0.23092809 0.22562987
2.6120236 -0.20633858 0.22395058
2.6310577 -0.18466811 0.2254352
2.6317401 -0.16156437 0.22536375
2.6331072 -0.11539213 0.22527313
2.63379 -0.092316374 0.22525372
2.6344695 -0.069242746 0.22525132
2.6351523 -0.046167888 0.22526649
2.6358359 -0.023088161 0.225299
2.6365197 0 0.2253488
2.6372011 0.023100119 0.22541568
2.637886 0.046215788 0.2255002
2.6385705 0.069350533 0.22560197
2.6392562 0.092507973 0.22572123
2.6399426 0.11569168 0.22585793
2.6406295 0.13890526 0.22601211
2.6413181 0.16215238 0.22618395
2.6420074 0.18543664 0.22637339
2.6426978 0.20876171 0.22658053
2.6433878 0.23213114 0.22680531
2.6440814 0.25554901 0.22704817
2.6447761 0.27901882 0.22730897
2.645473 0.3025445 0.22758792
2.6461687 0.32612944 0.22788478
2.6468694 0.34977823 0.22820023
2.6475713 0.37349427 0.22853403
2.6482739 0.39728141 0.22888628
2.6489809 0.42114413 0.2292574
2.649688 0.44508591 0.22964722
2.6503978 0.46911108 0.23005605
2.6511121 0.49322411 0.2304842
2.6518292 0.51742899 0.23093171
2.6525471 0.54172951 0.2313986
2.6532705 0.56613088 0.2318854
2.6539967 0.59063703 0.23239212
2.6547227 0.61525148 0.23291864
2.6554558 0.63998061 0.23346584
2.6561906 0.66482764 0.23403345
2.6563246 0.68964076 0.23456851
2.6501896 0.71288306 0.23456918
2.6438515 0.73607081 0.23456985
2.6373103 0.75920224 0.23457052
2.6305668 0.78227556 0.23457119
2.6304038 0.80737078 0.23517826
2.6311588 0.83288896 0.23588899
2.6622143 0.86844671 0.23934598
2.6629868 0.8945809 0.24011071
2.6637669 0.92088544 0.2408991
2.6645501 0.94736469 0.24171112
2.6653371 0.97402453 0.24254717
2.6661332 1.0008729 0.24340808
2.6669304 1.0279126 0.2442935
2.6677372 1.0551536 0.24520463
2.6685486 1.0825999 0.24614137
2.6693685 1.1102598 0.24710454
2.6701934 1.1381385 0.24809426
2.671025 1.1662436 0.24911112
2.6718624 1.1945816 0.25015551
2.672709 1.2231616 0.25122824
2.6735613 1.2519891 0.25232953
2.6744215 1.2810729 0.25346005
2.5901628 -1.5634304 0.28544986
2.5910573 -1.5331683 0.28405756
1.9823804 -1.1496817 0.21621601
1.9830524 -1.1269763 0.21520436
1.9837202 -1.1044816 0.21421872
1.9843804 -1.0821896 0.21325819
1.9850314 -1.060093 0.21232209
1.9856811 -1.0381902 0.21141078
1.9863236 -1.0164722 0.21052316
1.9876281 -0.99526823 0.2097294
1.9962735 -0.97782236 0.20972982
2.0047657 -0.96030146 0.20973025
2.6003909 -1.2177246 0.27091581
2.5148606 -0.96930057 0.25429156
2.5648737 -0.96285975 0.25848594
2.5785394 -0.94230503 0.25902137
2.5792847 -0.91704911 0.25827944
2.589891 -0.89534599 0.25854626
2.6104751 -0.87694055 0.25982437
2.6112175 -0.85181093 0.25914568
2.6119561 -0.82681036 0.25849032
2.6126931 -0.80193466 0.25785819
2.6134245 -0.77717781 0.25724867
2.6141553 -0.75253659 0.25666189
2.6148789 -0.72800463 0.25609702
2.6156027 -0.70357943 0.25555453
2.616322 -0.67925519 0.2550337
2.617039 -0.65502822 0.25453451
2.617753 -0.63089401 0.25405675
2.618464 -0.6068483 0.25360015
2.6191714 -0.58288676 0.25316444
2.61988 -0.55900633 0.25274995
2.6205823 -0.53520137 0.25235575
2.6212847 -0.51146913 0.2519823
2.6219873 -0.48780563 0.25162944
2.6226838 -0.46420577 0.25129643
2.6233807 -0.44066685 0.25098372
2.6240759 -0.41718468 0.250691
2.6247673 -0.39375505 0.25041795
2.6254597 -0.37037498 0.2501649
2.6261504 -0.34704024 0.24993147
2.626838 -0.32374701 0.24971744
2.6275265 -0.30049211 0.24952312
2.6282141 -0.27727157 0.24934819
2.6288986 -0.25408161 0.24919243
2.6295843 -0.23091899 0.24905615
2.6118155 -0.20632213 0.24719255
2.630954 -0.18466082 0.24884127
2.6330028 -0.11538755 0.24866231
2.6336863 -0.092312746 0.24864097
2.6343675 -0.069240063 0.24863848
2.6350505 -0.046166103 0.24865523
2.6357341 -0.023087269 0.24869111
2.6364176 0 0.24874607
2.6370993 0.023099227 0.24881993
2.6377833 0.046213984 0.24891311
2.6384685 0.069347851 0.24902554
2.6391544 0.092504404 0.24915721
2.6398387 0.11568713 0.2493079
2.6405261 0.13889982 0.24947815
2.6412137 0.16214596 0.24966772
2.6419032 0.18542932 0.24987686
2.6425936 0.20875347 0.2501055
2.6432841 0.23212203 0.25035369
2.6439769 0.25553891 0.25062171
2.6446722 0.27900788 0.25090963
2.6453667 0.30253235 0.25121731
2.646065 0.32611665 0.25154525
2.6467655 0.3497645 0.25189343
2.6474676 0.37347963 0.25226191
2.6481702 0.39726582 0.25265071
2.6488769 0.42112762 0.25306037
2.649586 0.44506875 0.25349084
2.650296 0.46909302 0.25394213
2.65101 0.49320516 0.25441474
2.6517255 0.51740879 0.25490856
2.6524436 0.54170841 0.25542393
2.6531668 0.56610876 0.25596127
2.6538913 0.59061354 0.25652042
2.6261492 0.60862941 0.25434446
2.6251345 0.63267297 0.25477311
2.6258607 0.65723622 0.25539252
2.6255753 0.68165755 0.2559357
2.5750515 0.69267142 0.25159252
2.6621118 0.86841327 0.26419657
2.6628845 0.89454645 0.26504073
2.6636641 0.92084998 0.26591098
2.6644452 0.94732738 0.26680708
2.6652348 0.97398716 0.26773021
2.666029 1.0008337 0.2686803
2.6668284 1.0278734 0.26965788
2.6676331 1.0551124 0.27066338
2.0603368 0.83585531 0.20978071
2.052942 0.853872 0.20978126
2.0453897 0.87182319 0.20978181
2.0427856 0.8919369 0.21030799
2.6717589 1.1945354 0.27612838
2.6726058 1.2231144 0.27731252
2.6734579 1.2519407 0.27852812
2.6743183 1.2810234 0.27977607
1.9816259 -1.1725585 0.23772155
1.9823049 -1.1496379 0.2365859
1.9829764 -1.1269331 0.23547889
1.9836422 -1.1044382 0.23440015
1.9843024 -1.082147 0.23334913
1.9849571 -1.0600533 0.23232527
1.9856046 -1.0381503 0.23132785
1.9862468 -1.0164329 0.23035659
1.986882 -0.99489456 0.22941075
1.987515 -0.97353226 0.22849047
1.9881411 -0.9523381 0.22759472
1.9887625 -0.93130797 0.2267233
1.9893814 -0.9104377 0.22587605
1.9899926 -0.88971972 0.22505194
1.9906032 -0.86915255 0.2242514
1.9912082 -0.84872901 0.22347347
1.9918069 -0.82844424 0.2227177
2.442137 -0.94127077 0.27021259
2.4969614 -0.93736529 0.27535966
2.5555046 -0.93388718 0.2809028
2.5791821 -0.91701269 0.2826117
2.5897915 -0.89531159 0.28290403
2.6103714 -0.87690568 0.28430215
2.6111157 -0.85177773 0.28355974
2.6118555 -0.82677853 0.28284279
2.6125908 -0.80190325 0.28215092
2.6133225 -0.77714747 0.28148398
2.6140532 -0.75250721 0.28084192
2.6147761 -0.72797602 0.28022379
2.6155005 -0.70355189 0.27963021
2.6162198 -0.67922866 0.27906033
2.6169362 -0.65500253 0.27851412
2.6176503 -0.63086921 0.27799129
2.6183612 -0.60682446 0.27749169
2.6190701 -0.58286417 0.27701509
2.6197767 -0.55898434 0.27656138
2.620481 -0.53518069 0.27613023
2.6211834 -0.5114494 0.27572161
2.6218836 -0.48778632 0.27533525
2.6225803 -0.46418747 0.27497089
2.6232769 -0.44064945 0.2746287
2.6239719 -0.41716817 0.27430838
2.6246636 -0.39373949 0.27400964
2.6253576 -0.37036055 0.2737329
2.6260483 -0.34702677 0.27347749
2.6267364 -0.32373449 0.27324337
2.6274245 -0.30048043 0.27303067
2.6281118 -0.27726078 0.27283925
2.6287966 -0.25407174 0.27266884
2.6294823 -0.23091003 0.27251974
2.6116092 -0.20630583 0.2704697
2.6308517 -0.18465364 0.27228457
2.4827654 -0.15241872 0.2568101
2.4799929 -0.13045529 0.25639528
2.632901 -0.1153831 0.27208883
2.633584 -0.092309155 0.2720654
2.6342652 -0.069237374 0.27206269
2.6349483 -0.046164315 0.27208105
2.6356313 -0.023086369 0.27212027
2.6363153 0 0.27218044
2.6369965 0.023098327 0.2722612
2.6376812 0.046212196 0.27236325
2.638366 0.069345161 0.27248624
2.6390517 0.092500798 0.27263024
2.6397359 0.11568262 0.27279517
2.6404233 0.13889441 0.27298146
2.6411111 0.16213967 0.27318892
2.6418004 0.18542211 0.27341774
2.6424892 0.20874521 0.27366775
2.6431811 0.23211299 0.27393946
2.6438742 0.25552899 0.27423277
2.6445696 0.27899703 0.27454785
2.6452641 0.30252063 0.27488449
2.6459627 0.32610404 0.27524334
2.646663 0.34975094 0.27562431
2.6473632 0.37346491 0.27602732
2.6480682 0.39725053 0.27645302
2.6487725 0.42111102 0.27690101
2.6494796 0.4450509 0.27737185
2.6501918 0.46907461 0.27786586
2.6509061 0.49318579 0.27838302
2.6516213 0.51738846 0.27892336
2.6523414 0.54168749 0.27948749
2.6530631 0.56608665 0.28007528
2.6537874 0.59059036 0.28068709
2.6260438 0.60860491 0.27830586
2.6250293 0.63264769 0.27877498
2.6055641 0.65215617 0.27730379
2.5430918 0.66024303 0.27126011
2.033638 0.58542317 0.21848476
2.0342138 0.60493267 0.21910751
2.0347972 0.62455648 0.21975116
2.0353801 0.64429623 0.22041517
2.0359693 0.66415799 0.22110048
2.0365582 0.68414384 0.2218067
2.0371532 0.70426017 0.22253485
2.0377545 0.72451133 0.22328521
2.0383561 0.74489975 0.2240575
2.038964 0.765432 0.22485267
2.0395751 0.78611165 0.22567075
2.0401909 0.80694401 0.22651227
2.0408113 0.82793403 0.22737761
2.0414371 0.84908682 0.22826722
2.0420682 0.87040752 0.22918151
2.0427046 0.89190149 0.2301209
2.0433466 0.91357422 0.23108587
2.6725001 1.223066 0.30343792
2.6733527 1.2518915 0.30476812
2.6742134 1.2809731 0.30613363
1.9815487 -1.1725128 0.2582247
1.9822257 -1.149592 0.25699082
1.9828988 -1.126889 0.25578856
1.9835663 -1.104396 0.25461701
1.9842238 -1.0821042 0.25347501
1.9848769 -1.0600106 0.25236261
1.9855261 -1.0381092 0.25127938
1.9861681 -1.0163926 0.25022435
1.9868056 -0.99485636 0.24919723
1.987438 -0.97349453 0.2481975
1.9880639 -0.95230114 0.24722447
1.988687 -0.93127263 0.24627812
1.9893039 -0.91040224 0.24535754
1.9899166 -0.88968569 0.24446253
1.9905249 -0.86911839 0.24359268
1.9911281 -0.84869486 0.24274744
1.9917287 -0.8284117 0.24192671
1.9930834 -0.80857128 0.24122173
2.3048444 -0.91162086 0.2779769
2.451653 -0.92035645 0.29369301
2.5129993 -0.91835403 0.30006677
2.5784049 -0.9167363 0.30690598
2.5896926 -0.89527738 0.30730432
2.6102698 -0.87687159 0.30882284
2.6110115 -0.85174376 0.30801609
2.6117523 -0.82674587 0.30723739
2.6124873 -0.80187148 0.30648583
2.6132202 -0.77711707 0.30576152
2.6139486 -0.75247711 0.30506381
2.6146736 -0.72794753 0.30439261
2.6153977 -0.70352429 0.30374783
2.6161168 -0.67920196 0.30312878
2.6168334 -0.65497679 0.30253544
2.6175473 -0.63084441 0.30196753
2.6182582 -0.60680056 0.30142483
2.6189685 -0.58284163 0.30090731
2.6196733 -0.55896223 0.3004142
2.6203797 -0.53516001 0.29994616
2.6210799 -0.51142919 0.29950204
2.6217802 -0.48776713 0.29908237
2.6224768 -0.46416917 0.29868659
2.6231751 -0.44063234 0.29831508
2.6238704 -0.41715199 0.29796717
2.6245615 -0.3937242 0.29764262
2.6252537 -0.37034589 0.29734176
2.6259444 -0.34701303 0.29706436
2.6266317 -0.32372162 0.29680994
2.6273205 -0.30046853 0.29657897
2.6280079 -0.27724981 0.29637107
2.6286943 -0.25406188 0.29618618
2.6293778 -0.23090085 0.29602394
2.6113999 -0.20628931 0.29378521
2.6307476 -0.18464632 0.29576853
2.4625158 -0.15117559 0.27669516
2.4612317 -0.12946838 0.27641284
2.6327984 -0.1153786 0.2955561
2.6334808 -0.092305541 0.29553059
2.6341624 -0.069234677 0.2955277
2.6348455 -0.046162512 0.29554763
2.635529 -0.023085473 0.29559028
2.6362121 0 0.29565555
2.636894 0.023097429 0.29574338
2.6375785 0.046210397 0.29585421
2.6382635 0.069342464 0.29598781
2.638947 0.09249714 0.29614404
2.6396313 0.11567804 0.29632315
2.6403182 0.13888888 0.29652548
2.6410069 0.16213328 0.29675093
2.6416962 0.18541479 0.29699948
2.6423848 0.20873697 0.29727104
2.6430767 0.23210381 0.29756618
2.6437705 0.25551894 0.29788485
2.6444647 0.27898598 0.29822698
2.6451595 0.30250865 0.29859269
2.6458578 0.32609111 0.2989825
2.6465585 0.34973714 0.29939637
2.6472588 0.37345016 0.29983413
2.6479633 0.3972348 0.30029649
2.6486702 0.42109478 0.30078343
2.6493776 0.44503373 0.30129489
2.6500878 0.46905619 0.30183133
2.6508017 0.49316642 0.30239305
2.6515174 0.5173682 0.30298004
2.6522374 0.54166627 0.3035928
2.6529572 0.56606406 0.30423108
2.6536834 0.59056729 0.30489591
2.6259387 0.60858053 0.30230901
2.6244214 0.63250113 0.30276057
2.553062 0.6390152 0.29516277
2.0329843 0.56600016 0.23667404
2.0335591 0.58540046 0.23732881
2.0341349 0.60490918 0.23800527
2.0347164 0.62453169 0.23870422
2.0352995 0.64427072 0.23942551
2.0358872 0.66413116 0.24016975
2.0364799 0.68411756 0.24093735
2.037075 0.70423317 0.24172831
2.0376725 0.72448218 0.24254294
2.0382781 0.74487126 0.2433823
2.0388846 0.7654022 0.24424589
2.0394936 0.78608024 0.24513428
2.0401092 0.80691177 0.24604838
2.0407319 0.82790178 0.24698861
2.0413575 0.84905362 0.24795492
2.0419891 0.87037373 0.24894811
2.0426238 0.89186621 0.24996834
2.0432661 0.91353822 0.25101656
2.0439122 0.93539357 0.25209284
2.6732478 1.2518423 0.33105382
2.6741087 1.280923 0.33253714
1.9814696 -1.172466 0.27876654
1.9821488 -1.1495475 0.27743483
1.9828198 -1.126844 0.27613661
1.983487 -1.1043518 0.27487183
1.9841465 -1.082062 0.27363926
1.9848006 -1.0599698 0.27243853
1.985448 -1.0380684 0.27126887
1.9860898 -1.0163525 0.27012989
1.9867269 -0.9948169 0.269021
1.987359 -0.97345585 0.26794171
1.9879864 -0.95226407 0.26689148
1.9886078 -0.93123549 0.26586962
1.9892244 -0.91036582 0.26487577
1.9898372 -0.88965029 0.26390961
1.9904453 -0.86908358 0.26297051
1.99105 -0.8486616 0.26205823
1.9916505 -0.82837921 0.26117221
1.9922471 -0.80823201 0.26031211
2.2719767 -0.89862084 0.29582244
2.3278201 -0.89720964 0.30205867
2.4211309 -0.90889841 0.31312165
2.4851639 -0.90818179 0.32036182
2.553632 -0.90792841 0.32815024
2.5895925 -0.89524287 0.3317509
2.6101661 -0.87683672 0.33338982
2.6109099 -0.85171068 0.33251917
2.61165 -0.82671344 0.33167845
2.6123846 -0.80183995 0.33086705
2.6131182 -0.77708668 0.33008519
2.6138463 -0.75244766 0.32933199
2.614573 -0.72791952 0.32860759
2.6152954 -0.70349675 0.32791132
2.616014 -0.67917526 0.32724297
2.6167302 -0.65495098 0.32660237
2.6174459 -0.63082004 0.32598954
2.618155 -0.60677665 0.32540339
2.6188655 -0.58281863 0.32484475
2.6195703 -0.55894023 0.32431242
2.6202762 -0.53513885 0.32380709
2.6209762 -0.51140893 0.32332763
2.6216767 -0.48774785 0.32287461
2.6223762 -0.46415135 0.32244769
2.6230714 -0.44061494 0.32204622
2.6237664 -0.41713545 0.32167062
2.6244595 -0.39370888 0.32132047
2.6251495 -0.3703312 0.32099548
2.6258419 -0.34699947 0.32069618
2.6265318 -0.32370928 0.32042184
2.627218 -0.30045679 0.32017219
2.6279056 -0.27723902 0.31994778
2.6285918 -0.25405192 0.31974813
2.6292756 -0.23089185 0.31957301
2.6111927 -0.20627294 0.31714338
2.6306448 -0.18463911 0.31929728
2.450326 -0.15042724 0.29723957
2.4497213 -0.1288629 0.2970179
2.6326935 -0.11537401 0.31906769
2.6333764 -0.092301875 0.31904021
2.6340575 -0.069231912 0.31903702
2.6347404 -0.046160672 0.31905851
2.6354239 -0.023084553 0.31910458
2.6361072 0 0.31917506
2.6367893 0.023096513 0.3192699
2.6374733 0.046208557 0.31938949
2.6381588 0.069339715 0.3195338
2.6388438 0.092493519 0.3197026
2.6395283 0.11567353 0.31989601
2.6402156 0.13888349 0.32011449
2.6409039 0.16212694 0.32035783
2.6415932 0.18540756 0.32062614
2.642282 0.20872885 0.32091933
2.6429739 0.23209479 0.32123798
2.643667 0.25550896 0.32158193
2.6443601 0.27897495 0.32195112
2.6450567 0.30249691 0.32234618
2.6457553 0.3260785 0.32276702
2.6464558 0.34972355 0.32321376
2.6471562 0.37343568 0.32368639
2.6478591 0.39721915 0.32418534
2.6485655 0.42107812 0.32471097
2.6492734 0.44501624 0.32526314
2.6499848 0.46903795 0.32584241
2.6506972 0.49314696 0.32644865
2.651413 0.51734781 0.32708234
2.6521335 0.54164505 0.32774392
2.6528547 0.56604218 0.32843319
2.6535795 0.59054416 0.32915068
2.6258323 0.60855591 0.3263576
2.5923734 0.62477738 0.32286689
2.5171604 0.63002926 0.31417474
2.0329051 0.56597817 0.25550178
2.0334778 0.5853771 0.25620836
2.0340562 0.60488576 0.25693893
2.0346358 0.62450695 0.25769329
2.0352213 0.64424592 0.25847223
2.0358086 0.66410559 0.25927567
2.0363977 0.6840899 0.26010385
2.0369949 0.70420545 0.26095799
2.0375926 0.72445375 0.26183745
2.0381961 0.74484128 0.26274332
2.0388029 0.7653715 0.26367566
2.0394139 0.78604954 0.264635
2.0400298 0.8068803 0.26562184
2.0406508 0.82786888 0.26663667
2.0412786 0.84902084 0.26768014
2.0419102 0.87034011 0.26875234
2.0425451 0.89183182 0.26985377
2.0431857 0.91350222 0.27098516
2.0438321 0.93535686 0.27214706
2.6731429 1.2517931 0.35738948
2.6740041 1.2808729 0.35899085
1.9813914 -1.1724198 0.29935074
1.9820698 -1.1495017 0.29792058
1.9827425 -1.1268002 0.29652679
1.9834079 -1.1043078 0.29516834
1.984069 -1.0820198 0.29384497
1.9847212 -1.0599273 0.2925553
1.9853697 -1.0380274 0.29129946
1.9860137 -1.0163136 0.29007667
1.9866503 -0.99477857 0.28888589
1.9872825 -0.97341835 0.28772691
1.9879099 -0.95222741 0.28659913
1.9885288 -0.93119854 0.28550145
1.989149 -0.91033131 0.28443474
1.9897611 -0.88961625 0.28339711
1.9903693 -0.86905044 0.28238872
1.9909741 -0.84862924 0.28140905
1.9915725 -0.82834679 0.28045735
1.9921689 -0.8082003 0.27953368
2.249197 -0.88961095 0.31449345
2.3070333 -0.88919789 0.32147902
2.4700422 -0.90265566 0.34193766
2.5425379 -0.90398407 0.35086393
2.589493 -0.89520842 0.35624784
2.6100643 -0.87680256 0.35800758
2.6108081 -0.85167742 0.35707265
2.611546 -0.8266806 0.35616958
2.6122823 -0.80180854 0.35529849
2.6130157 -0.77705622 0.35445887
2.6137457 -0.7524187 0.3536503
2.6144705 -0.72789097 0.35287216
2.61519 -0.70346844 0.35212409
2.6159112 -0.67914855 0.35140672
2.6166272 -0.65492517 0.35071883
2.6173425 -0.63079506 0.3500607
2.6180515 -0.60675269 0.34943128
2.618762 -0.58279562 0.34883139
2.6194665 -0.55891812 0.34825972
2.6201727 -0.53511769 0.34771711
2.6208746 -0.51138908 0.34720245
2.6215749 -0.48772892 0.34671599
2.6222723 -0.46413296 0.34625724
2.6229675 -0.44059744 0.34582618
2.6236639 -0.41711918 0.34542301
2.6243575 -0.39369354 0.34504706
2.6250477 -0.37031683 0.3446981
2.6257377 -0.3469857 0.34437642
2.6264267 -0.32369635 0.34408173
2.6271133 -0.30044487 0.34381372
2.6278028 -0.27722818 0.34357294
2.628489 -0.254042 0.34335855
2.6091127 -0.22912125 0.34055221
2.6020508 -0.20555076 0.33938241
2.4435141 -0.15000905 0.31831303
2.44332 -0.12852617 0.31812888
2.662765 -0.11669185 0.34655505
2.6057498 -0.091333553 0.33901745
2.6144772 -0.068717279 0.34006155
2.6346376 -0.046158873 0.34261805
2.6353204 -0.023083648 0.34266743
2.636004 0 0.34274316
2.6366861 0.023095608 0.34284499
2.6373703 0.046206746 0.34297344
2.6380553 0.069336995 0.34312832
2.6387403 0.092489898 0.34330964
2.639425 0.115669 0.34351736
2.6401126 0.13887808 0.343752
2.6408002 0.1621206 0.34401321
2.6414902 0.18540034 0.34430146
2.6421788 0.2087207 0.34461626
2.6428704 0.2320857 0.34495839
2.6435642 0.25549901 0.34532782
2.6442573 0.2789641 0.34572428
2.6449518 0.3024849 0.34614825
2.6456504 0.32606557 0.34660017
2.6463492 0.34970948 0.34707969
2.6470513 0.37342092 0.34758747
2.6477561 0.39720371 0.34812349
2.6484611 0.42106149 0.34868771
2.6491685 0.44499862 0.34928066
2.6498806 0.4690195 0.34990278
2.650593 0.49312758 0.35055378
2.6513104 0.51732779 0.3512345
2.6520274 0.54162341 0.35194445
2.6527505 0.56601995 0.35268483
2.6534755 0.59052098 0.35345536
2.6257267 0.60853148 0.35045567
2.5754573 0.62070048 0.34445867
2.3822823 0.61849332 0.32002234
2.3163195 0.62307429 0.31188247
2.0328243 0.56595564 0.27436802
2.0333974 0.58535391 0.27512684
2.0339756 0.6048618 0.27591136
2.0345554 0.62448227 0.27672142
2.0351391 0.64421988 0.27755764
2.0357282 0.66407937 0.27842066
2.03632 0.68406379 0.27931038
2.0369132 0.70417714 0.28022701
2.0375144 0.72442597 0.28117192
2.0381165 0.74481213 0.28214449
2.0387213 0.76534086 0.2831454
2.0393348 0.78601903 0.2841759
2.0399506 0.806849 0.28523561
2.0405717 0.82783669 0.28632537
2.041198 0.84898728 0.28744572
2.0418274 0.87030488 0.28859681
2.0424626 0.89179575 0.28977957
2.0431073 0.91346711 0.29099506
2.0437536 0.93532097 0.2922428
2.6730382 1.2517442 0.38377932
2.6738999 1.280823 0.38549903
1.9813151 -1.1723746 0.31998086
1.9819932 -1.1494572 0.31845209
1.9826642 -1.1267556 0.31696194
1.9833286 -1.1042635 0.31550974
1.9839914 -1.0819775 0.31409547
1.9846454 -1.0598869 0.31271723
1.9852901 -1.0379858 0.31137422
1.9859333 -1.0162724 0.31006706
1.98657 -0.9947384 0.3087942
1.9872018 -0.97337884 0.30755529
1.9878289 -0.95218855 0.30634972
1.9884515 -0.93116236 0.305177
1.9890696 -0.91029495 0.30403647
1.9896816 -0.88958073 0.30292732
1.9902902 -0.86901587 0.30184948
1.990894 -0.84859508 0.30080217
1.9914942 -0.82831419 0.29978517
1.9920887 -0.80816776 0.29879758
2.2351937 -0.8840723 0.33408707
2.295547 -0.88477069 0.34193638
2.4681301 -0.90195692 0.36523384
2.5469148 -0.90554023 0.37570423
2.5893924 -0.89517367 0.38079897
2.609962 -0.87676817 0.38267985
2.6107039 -0.85164344 0.38168019
2.6114438 -0.82664824 0.38071516
2.61218 -0.80177718 0.37978408
2.6129115 -0.77702522 0.37888631
2.613641 -0.75238854 0.37802193
2.6143661 -0.72786188 0.37719023
2.6150889 -0.70344126 0.37639108
2.615808 -0.67912173 0.37562397
2.6165257 -0.65489978 0.37488893
2.617239 -0.63077015 0.37418514
2.61795 -0.60672915 0.37351266
2.6186585 -0.58277261 0.3728711
2.6193647 -0.55889642 0.37226033
2.6200686 -0.53509641 0.37167996
2.6207702 -0.51136875 0.37112984
2.6214705 -0.48770949 0.37060982
2.6221681 -0.46411452 0.37011951
2.6228666 -0.44058055 0.36965922
2.6235595 -0.41710258 0.36922777
2.6242526 -0.39367783 0.36882585
2.6249447 -0.37030232 0.36845315
2.6256347 -0.34697211 0.36810926
2.6263242 -0.32368368 0.36779431
2.6270106 -0.30043307 0.36750779
2.6276977 -0.27721709 0.36725014
2.6283839 -0.25403184 0.36702096
2.5922816 -0.22764321 0.36168742
2.5886958 -0.20449577 0.36092335
2.6043928 -0.18279654 0.36287469
2.441201 -0.14986704 0.33994094
2.4410591 -0.12840724 0.33975154
2.6064758 -0.11422505 0.3626214
2.5921152 -0.090855643 0.36049896
2.5969989 -0.068257891 0.36108115
2.6345348 -0.046157073 0.36622983
2.6352181 -0.02308275 0.36628264
2.635901 0 0.3663635
2.6365819 0.023094695 0.36647218
2.6372664 0.046204928 0.36660954
2.6379521 0.069334276 0.36677518
2.6386371 0.092486277 0.36696902
2.6393216 0.11566447 0.36719102
2.6400089 0.13887262 0.36744177
2.6406975 0.16211428 0.36772114
2.6413846 0.18539292 0.36802885
2.6420732 0.20871235 0.36836538
2.6427653 0.23207647 0.36873114
2.6434588 0.25548884 0.36912599
2.6441522 0.27895302 0.36954981
2.6448486 0.3024731 0.37000325
2.6455472 0.32605281 0.37048632
2.6462455 0.34969577 0.37099886
2.6469483 0.37340635 0.37154168
2.6476512 0.39718798 0.37211442
2.6483562 0.42104483 0.37271753
2.6490657 0.44498137 0.37335163
2.6497774 0.46900126 0.37401658
2.6504884 0.49310809 0.3747122
2.651206 0.5173074 0.37543988
2.6519227 0.54160202 0.37619877
2.6526465 0.56599778 0.37699026
2.6533689 0.59049731 0.37781355
2.6256208 0.60850692 0.37460709
2.5750356 0.62059885 0.36815134
2.367589 0.61467856 0.3399803
2.0327437 0.56593323 0.29327607
2.0333183 0.58533114 0.29408741
2.0338945 0.60483772 0.29492572
2.034477 0.62445819 0.29579201
2.0350606 0.64419508 0.29668584
2.0356462 0.66405255 0.29760778
2.0362396 0.68403685 0.29855907
2.036833 0.70414948 0.29953894
2.0374331 0.72439706 0.30054879
2.0380368 0.74478304 0.30158862
2.0386419 0.76531112 0.30265859
2.0392532 0.78598762 0.30375978
2.0398695 0.80681694 0.3048926
2.0404928 0.82780474 0.30605778
2.0411172 0.84895366 0.30725503
2.0417485 0.87027133 0.30848578
2.0423841 0.89176148 0.30975008
2.0430253 0.91343051 0.31104887
2.0436716 0.93528348 0.31238255
2.6729314 1.2516942 0.41022736
2.6737933 1.280772 0.4120656
1.9812371 -1.1723284 0.34065965
1.9819133 -1.1494108 0.33903179
1.982585 -1.1267107 0.3374455
1.9832517 -1.1042207 0.3358998
1.9839107 -1.0819334 0.3343935
1.984566 -1.0598445 0.33292642
1.9852144 -1.0379462 0.33149725
1.9858555 -1.0162326 0.33010525
1.9864939 -0.99470031 0.32875043
1.9871252 -0.97334135 0.32743138
1.9877502 -0.95215088 0.32614759
1.9883729 -0.93112552 0.32489905
1.9889888 -0.91025794 0.32368445
1.9896027 -0.88954544 0.32250395
1.9902104 -0.86898106 0.32135633
1.9908161 -0.84856188 0.32024166
1.9914159 -0.82828164 0.31915885
1.9920121 -0.8081367 0.31810769
2.2940419 -0.88419056 0.3638097
2.5738556 -0.91511881 0.40423104
2.5892925 -0.8951391 0.40540847
2.6098585 -0.87673342 0.40741047
2.6106017 -0.85161006 0.40634644
2.6113412 -0.82661575 0.40531898
2.6120758 -0.80174518 0.40432745
2.6128087 -0.77699465 0.40337193
2.6135383 -0.75235897 0.40245169
2.6142647 -0.72783363 0.40156645
2.6149862 -0.70341355 0.40071544
2.6157045 -0.67909491 0.39989868
2.6164224 -0.65487391 0.39911613
2.6171336 -0.63074476 0.39836657
2.6178465 -0.60670519 0.3976509
2.6185544 -0.58274943 0.39696783
2.6192625 -0.55887461 0.39631784
2.6199648 -0.53507525 0.39569974
2.6206679 -0.51134878 0.39511433
2.6213682 -0.48769048 0.39456069
2.6220658 -0.4640964 0.39403868
2.6227622 -0.44056299 0.39354834
2.623455 -0.41708595 0.393089
2.62415 -0.39366242 0.39266139
2.6248417 -0.37028775 0.39226452
2.6255298 -0.34695825 0.39189816
2.626219 -0.32367074 0.39156282
2.6269093 -0.30042151 0.39125836
2.6275947 -0.27720624 0.39098382
2.6282804 -0.25402185 0.39073977
2.5971391 -0.22806977 0.38579825
2.5893135 -0.20454457 0.38435492
2.6075935 -0.1830212 0.38681558
2.4446528 -0.15007895 0.3624357
2.4443018 -0.12857783 0.36220282
2.6093831 -0.11435246 0.38650173
2.5924733 -0.090868197 0.3838644
2.6014895 -0.068375923 0.38509598
2.6344302 -0.046155237 0.38989735
2.6351132 -0.023081832 0.38995355
2.635797 0 0.39003977
2.6364791 0.023093795 0.39015567
2.6371632 0.046203122 0.39030182
2.6378481 0.069331542 0.39047807
2.6385314 0.092482567 0.39068419
2.6392159 0.11565985 0.39092055
2.6399035 0.13886707 0.39118755
2.6405909 0.16210774 0.3914848
2.6412797 0.18538556 0.39181265
2.6419692 0.20870414 0.39217106
2.6426623 0.23206742 0.3925606
2.6433535 0.25547865 0.39298064
2.6440487 0.27894208 0.39343214
2.6447451 0.30246127 0.39391488
2.645443 0.32604 0.39442906
2.6461411 0.34968197 0.39497468
2.646843 0.37339151 0.39555246
2.6475458 0.39717218 0.39616221
2.648253 0.42102841 0.39680463
2.6489606 0.44496372 0.39747944
2.6496716 0.46898252 0.39818722
2.6503837 0.49308863 0.39892802
2.6511014 0.51728702 0.3997027
2.6518197 0.54158098 0.40051088
2.6525416 0.56597537 0.40135327
2.6532643 0.59047401 0.40222979
2.6255143 0.60848224 0.39881563
2.5981529 0.62617022 0.39547738
2.3644016 0.61385107 0.36147854
2.0326643 0.56591117 0.31222922
2.0332398 0.58530855 0.3130931
2.0338161 0.60481435 0.31398559
2.0343945 0.62443286 0.31490722
2.0349801 0.64416957 0.31585917
2.0355678 0.66402698 0.31684101
2.0361576 0.68400925 0.31785321
2.0367532 0.70412189 0.31889677
2.0373533 0.72436869 0.31997189
2.0379534 0.74475253 0.32107833
2.0385625 0.76528126 0.32221806
2.0391738 0.78595704 0.32339048
2.0397902 0.80678552 0.32459646
2.04041 0.82777119 0.32583645
2.0410368 0.84892023 0.32711145
2.0416663 0.87023616 0.32842141
2.042304 0.89172655 0.32976779
2.0429451 0.91339469 0.3311505
2.043592 0.935247 0.33257046
2.6728275 1.2516454 0.43673858
2.6736889 1.2807219 0.43869555
1.9811578 -1.1722815 0.36139062
1.9818374 -1.1493669 0.35966429
1.9825075 -1.1266665 0.35798118
1.9831735 -1.1041772 0.3563413
1.9838339 -1.0818915 0.3547436
1.9844869 -1.0598023 0.35318682
1.9851331 -1.0379038 0.3516703
1.9857761 -1.016192 0.35019392
1.9864136 -0.99466008 0.34875649
1.9870454 -0.97330225 0.34735727
1.9876722 -0.95211351 0.34599566
1.988294 -0.93108863 0.34467101
1.9889116 -0.91022271 0.34338281
1.9895254 -0.88951087 0.34213045
1.9901329 -0.86894721 0.34091294
1.9907364 -0.84852791 0.33973005
1.9913362 -0.8282485 0.33858135
1.991932 -0.80810422 0.33746618
2.5312104 -0.92500907 0.42307618
2.578573 -0.91679609 0.42963383
2.5891914 -0.89510417 0.43008015
2.6097565 -0.87669915 0.43220395
2.6104975 -0.85157603 0.43107483
2.611237 -0.82658279 0.42998487
2.611973 -0.80171365 0.42893323
2.6127059 -0.77696413 0.42791957
2.6134334 -0.75232875 0.42694297
2.6141598 -0.72780442 0.42600384
2.614881 -0.70338535 0.42510107
2.6156013 -0.67906809 0.42423487
2.6163168 -0.6548475 0.42340434
2.6170318 -0.6307202 0.42260975
2.6177425 -0.60668105 0.42185017
2.6184528 -0.58272678 0.42112592
2.6191585 -0.55885237 0.42043602
2.6198623 -0.53505433 0.41978058
2.620564 -0.51132852 0.41915926
2.6212637 -0.48767102 0.41857186
2.6219611 -0.46407789 0.4180181
2.6226573 -0.44054538 0.41749784
2.623354 -0.41706991 0.4170112
2.6240449 -0.39364666 0.41655692
2.624737 -0.37027302 0.41613597
2.6254268 -0.34694463 0.41574758
2.6261158 -0.32365799 0.4153918
2.6268039 -0.30040947 0.41506851
2.6274891 -0.27719507 0.41477716
2.628175 -0.25401166 0.41451833
2.6288626 -0.23085561 0.41429198
2.6171296 -0.20674191 0.41214168
2.6302297 -0.18460998 0.41393414
2.4573061 -0.15085575 0.38649741
2.4560163 -0.12919404 0.38610172
2.6322777 -0.11535578 0.41363645
2.6179276 -0.09176039 0.41123939
2.6336439 -0.06922105 0.41359711
2.6343248 -0.046153393 0.4136247
2.6350076 -0.023080906 0.41368425
2.6356914 0 0.41377574
2.6363728 0.023092864 0.41389862
2.6370573 0.046201266 0.41405374
2.637742 0.069328755 0.41424069
2.6384273 0.092478923 0.41445962
2.6391125 0.1156553 0.41471046
2.6397998 0.13886161 0.4149937
2.6404879 0.1621014 0.41530916
2.6411757 0.18537825 0.41565681
2.6418655 0.20869595 0.41603705
2.6425576 0.23205824 0.4164502
2.6432493 0.25546861 0.41689587
2.6439431 0.27893093 0.41737461
2.6446407 0.30244932 0.41788691
2.6453364 0.32602686 0.41843206
2.6460364 0.34966812 0.41901118
2.6467402 0.373377 0.41962445
2.6474414 0.39715651 0.42027104
2.6481478 0.42101169 0.42095244
2.6488578 0.44494644 0.42166868
2.6495655 0.46896374 0.42241904
2.6502814 0.49306959 0.42320552
2.6509945 0.51726615 0.42402664
2.6517153 0.5415597 0.42488438
2.652436 0.56595284 0.42577785
2.6531596 0.5904507 0.42670783
2.6254077 0.60845757 0.42308545
2.6244109 0.63249856 0.42380136
2.0325832 0.56588852 0.33123004
2.0331566 0.58528465 0.33214623
2.0337355 0.60479045 0.33309343
2.0343158 0.62440872 0.33407146
2.0348978 0.64414352 0.33508074
2.0354874 0.66400075 0.33612266
2.0360775 0.68398237 0.33719653
2.0366714 0.70409358 0.3383033
2.0372734 0.72434032 0.33944416
2.0378742 0.74472362 0.34061807
2.0384815 0.76525086 0.34182686
2.0390911 0.78592515 0.34307033
2.0397096 0.80675364 0.34435007
2.0403292 0.8277384 0.34566545
2.040956 0.84888673 0.34701809
2.0415864 0.87020218 0.34840792
2.0422223 0.89169085 0.3498359
2.0428634 0.91335815 0.35130277
2.0435088 0.93520898 0.35280892
2.6727209 1.2515955 0.4633165
2.6735811 1.2806703 0.46539238
1.9810802 -1.1722356 0.38217768
1.9817556 -1.1493194 0.38035128
1.9824291 -1.1266221 0.37857199
1.9830949 -1.1041335 0.37683779
1.9837515 -1.0818466 0.37514743
1.984408 -1.0597601 0.37350178
1.985056 -1.0378635 0.37189838
1.9856986 -1.0161524 0.37033701
1.9863362 -0.99462134 0.36881694
1.9869668 -0.9732638 0.36733702
1.9875935 -0.95207584 0.36589709
1.9882156 -0.93105185 0.36449626
1.9888332 -0.91018677 0.36313397
1.9894441 -0.88947451 0.36180905
1.9900532 -0.8689124 0.36052179
1.9906571 -0.84849411 0.35927099
