# .PCD v0.7 - Point Cloud Data file format
VERSION 0.7
FIELDS x y z
SIZE 4 4 4
TYPE F F F
COUNT 1 1 1
WIDTH 664
HEIGHT 1
VIEWPOINT 0 0 0 1 0 0 0
POINTS 664
DATA ascii
0.08646591 -0.14809521 0.17150231
0.095139459 -0.14517865 0.17198962
0.10485062 -0.14453213 0.17229038
0.11480315 -0.14417464 0.17231569
0.12476647 -0.14428815 0.17234415
0.13518327 -0.14431337 0.17237493
0.14486994 -0.14444812 0.17240511
0.15462308 -0.14462815 0.17243658
0.16478604 -0.14465581 0.17246985
0.17530335 -0.14432044 0.17250425
0.18556863 -0.14426067 0.17253937
0.19484824 -0.14430162 0.17257209
0.20507169 -0.1442883 0.17260768
0.21469201 -0.14433335 0.17264083
0.22490899 -0.14393741 0.17267753
0.23492509 -0.14462398 0.17271651
0.24451073 -0.14384878 0.17275088
0.25511789 -0.14498447 0.17279381
0.26503077 -0.14366867 0.1728292
0.27516595 -0.14386731 0.17286898
0.28496706 -0.14519033 0.17291
0.29644796 -0.14391617 0.17295279
0.30631045 -0.14344063 0.17299108
0.31441385 -0.14389105 0.17302428
0.32279763 -0.14432186 0.1730587
0.33340788 -0.14557512 0.17310366
0.34401026 -0.14425319 0.17314428
0.3510707 -0.1424254 0.17316993
0.099097304 -0.13997428 0.17150235
0.10604127 -0.13651724 0.17183961
0.11495727 -0.13490266 0.17224856
0.12484115 -0.1349704 0.17231378
0.13508852 -0.13534413 0.17234629
0.14543658 -0.1351907 0.17237863
0.15523969 -0.13456202 0.17240895
0.16500396 -0.13505226 0.17244326
0.17439181 -0.13509764 0.17247576
0.18429413 -0.13493964 0.17251022
0.1945762 -0.1351248 0.17254759
0.2046133 -0.13478282 0.17258337
0.21500747 -0.13524176 0.17262104
0.22538055 -0.13394777 0.17265622
0.23472682 -0.1357321 0.17269568
0.24487996 -0.13514541 0.17273331
0.25553462 -0.13503166 0.17277437
0.26485792 -0.13379011 0.17280836
0.27443382 -0.13591771 0.17285024
0.2845898 -0.134792 0.17288832
0.29392916 -0.1360763 0.17292799
0.30502853 -0.13572828 0.17297181
0.3163532 -0.13484183 0.17301598
0.32706237 -0.13435662 0.1730587
0.33575118 -0.13450101 0.17309439
0.34475338 -0.13461509 0.17313145
0.35290825 -0.13779932 0.17316993
0.11652828 -0.12683795 0.17175806
0.12461715 -0.12525056 0.17221344
0.13495493 -0.12544748 0.17231558
0.14498197 -0.12497863 0.17234713
0.15515681 -0.12460847 0.1723806
0.1651511 -0.12507339 0.1724166
0.17492816 -0.1250588 0.17245127
0.18513314 -0.1248787 0.17248774
0.19486435 -0.12532337 0.17252465
0.20511936 -0.12470942 0.17256153
0.21496417 -0.12495479 0.17259905
0.22507294 -0.12443684 0.17263423
0.23496781 -0.12548302 0.17267467
0.24479845 -0.12528388 0.17271262
0.25507948 -0.12414674 0.17275091
0.26564327 -0.12581824 0.17279601
0.27520871 -0.12449405 0.17283177
0.28510606 -0.12627842 0.17287478
0.29483649 -0.12567057 0.172913
0.30492502 -0.12495591 0.17295279
0.31396934 -0.12577528 0.17299107
0.32365641 -0.12604491 0.17303117
0.33538148 -0.12422994 0.17307654
0.34674579 -0.12328337 0.1731222
0.12681131 -0.11684648 0.171822
0.13453865 -0.11496422 0.17221473
0.14505178 -0.1150956 0.17231965
0.15481676 -0.11475465 0.17235287
0.16509195 -0.11508086 0.17239049
0.17506868 -0.11489931 0.17242646
0.18483853 -0.11474476 0.17246245
0.19507067 -0.11507355 0.17250174
0.20476496 -0.11471315 0.17253798
0.21461149 -0.11533731 0.17257735
0.22440042 -0.11537956 0.17261405
0.23517339 -0.1146204 0.17265375
0.24479005 -0.11464428 0.17269199
0.25359526 -0.11415049 0.17272629
0.26487345 -0.11563718 0.17277437
0.27561909 -0.11634469 0.17281909
0.2854816 -0.11497808 0.17285693
0.29537171 -0.11533315 0.17289799
0.30493274 -0.11599869 0.17293833
0.31590214 -0.11387794 0.17298037
0.32629281 -0.11440428 0.17302428
0.33418527 -0.11553052 0.1730587
0.34286836 -0.11518025 0.17309439
0.3518627 -0.11478189 0.17313145
0.13630196 -0.10613704 0.17186128
0.1447482 -0.10489082 0.17229143
0.15524596 -0.1047774 0.17232905
0.16515234 -0.10510021 0.17236634
0.17486577 -0.104993 0.17240249
0.18485317 -0.10489498 0.17244034
0.19517346 -0.10542601 0.17248124
0.20512444 -0.10459315 0.17251839
0.21475267 -0.10480388 0.1725568
0.22448586 -0.10534715 0.17259623
0.23454519 -0.10485264 0.17263304
0.24564564 -0.10469121 0.17267753
0.25631636 -0.10586338 0.17272285
0.26467624 -0.10430837 0.17275444
0.27508771 -0.10540532 0.17279895
0.28518009 -0.10563465 0.17284086
0.29496044 -0.1056961 0.17288141
0.30538633 -0.10378601 0.17292199
0.3137193 -0.10538816 0.17295898
0.32461303 -0.10525557 0.17300434
0.33616224 -0.10447682 0.17305182
0.34623003 -0.10461417 0.17309439
0.13939299 -0.099913575 0.1715025
0.14544174 -0.095616437 0.17200582
0.15511197 -0.09455701 0.17230424
0.16486016 -0.095043071 0.17234229
0.17496337 -0.095289759 0.17238165
0.18516901 -0.09519536 0.17242119
0.1951263 -0.095577538 0.17246123
0.20498846 -0.094993226 0.17249936
0.21485083 -0.094482496 0.17253801
0.2250853 -0.094679505 0.17257981
0.23472378 -0.095497191 0.17261852
0.24445587 -0.094761476 0.17265621
0.25482702 -0.095091015 0.17269941
0.26561102 -0.095748752 0.17274494
0.27448866 -0.093549132 0.17277867
0.28535327 -0.095844835 0.17282724
0.29560891 -0.095000856 0.17286898
0.30489293 -0.095046282 0.17290799
0.31553167 -0.095042199 0.17295279
0.32461286 -0.09498769 0.17299107
0.33416152 -0.09619505 0.17303288
0.34496328 -0.094414815 0.17307654
0.35010031 -0.090893805 0.17309439
0.14826763 -0.087298855 0.17169426
0.15461516 -0.084494494 0.17220449
0.16475049 -0.085037984 0.1723208
0.17526488 -0.084952295 0.17236206
0.18499778 -0.085323587 0.17240149
0.19483818 -0.084922053 0.17244036
0.2046749 -0.085286736 0.17248088
0.21452333 -0.085440673 0.17252128
0.22463436 -0.084557511 0.17256144
0.23473002 -0.085156947 0.17260331
0.24516614 -0.084766164 0.17264399
0.25511545 -0.085003383 0.17268579
0.26439017 -0.084967986 0.17272457
0.27568951 -0.085368559 0.17277254
0.28426582 -0.085090153 0.17280836
0.2953158 -0.084997982 0.17285492
0.30547917 -0.085048012 0.17289799
0.31467766 -0.086125784 0.17293833
0.3247053 -0.083701715 0.17297824
0.33504993 -0.085421883 0.17302428
0.34301066 -0.08585339 0.1730587
0.35162982 -0.084744871 0.17309439
0.15600616 -0.075384811 0.17193095
0.16500805 -0.074817352 0.17230216
0.17487849 -0.074534155 0.17234144
0.18514931 -0.075347662 0.17238463
0.19460136 -0.074615009 0.17242222
0.20459533 -0.075391106 0.17246459
0.21501912 -0.07515052 0.17250749
0.22561026 -0.074585117 0.1725509
0.23590091 -0.075174242 0.17259483
0.24549063 -0.074822277 0.17263183
0.25581726 -0.075527176 0.17267627
0.26528335 -0.075314067 0.17271602
0.27376151 -0.074381456 0.17275088
0.28513795 -0.075362608 0.17280042
0.29468897 -0.075131752 0.17284086
0.3047353 -0.074856639 0.17288348
0.31521344 -0.074509151 0.17292799
0.32510844 -0.075954504 0.17297181
0.33470285 -0.073879831 0.17301099
0.34547332 -0.075297371 0.1730587
0.35306939 -0.078574263 0.17309439
0.15869243 -0.066710867 0.1717217
0.16479985 -0.064500898 0.17221484
0.17504178 -0.065089621 0.17232668
0.18478365 -0.065266222 0.17236738
0.19504912 -0.064854883 0.17240958
0.20493655 -0.065160088 0.17245139
0.21484382 -0.064573266 0.17249238
0.22435355 -0.065160483 0.17253333
0.23437782 -0.065459162 0.17257614
0.2443836 -0.064982809 0.1726165
0.25378594 -0.064703405 0.17265497
0.26443136 -0.064956188 0.17270073
0.27568349 -0.065165199 0.1727491
0.28567198 -0.065692432 0.17279248
0.29443178 -0.064744994 0.17282918
0.30513608 -0.0658172 0.17287624
0.31402019 -0.064132333 0.172913
0.32453424 -0.06480033 0.17295898
0.33567378 -0.06549719 0.17300767
0.34584311 -0.063571945 0.17305011
0.16513963 -0.054930836 0.17201845
0.17497757 -0.055037171 0.17231216
0.18502627 -0.055312138 0.17235482
0.19483076 -0.055236008 0.1723962
0.20485094 -0.054461829 0.17243788
0.21490459 -0.055460375 0.17248183
0.22509728 -0.054892156 0.17252477
0.23589583 -0.05447768 0.17257066
0.24619368 -0.055287335 0.17261411
0.25630248 -0.05520374 0.17265624
0.26654443 -0.05565349 0.17270072
0.27504316 -0.054943245 0.17273678
0.28421783 -0.054712661 0.17277621
0.29594386 -0.055044878 0.17282724
0.30550709 -0.055454653 0.17286898
0.31621125 -0.055145085 0.17291515
0.32637534 -0.054823458 0.17295898
0.33379418 -0.054567628 0.17299107
0.34534636 -0.054904368 0.17304148
0.1669158 -0.045113154 0.17191257
0.17451344 -0.045031156 0.17229801
0.18455063 -0.04475278 0.17234065
0.19523597 -0.044936433 0.17238666
0.20522134 -0.045357946 0.17242996
0.21497087 -0.044552114 0.17247123
0.22509798 -0.044936258 0.17251532
0.23365627 -0.045114532 0.17255247
0.24375536 -0.045555387 0.17259631
0.25429913 -0.045271415 0.1726391
0.26397511 -0.044341672 0.17268039
0.27406996 -0.044804092 0.17272457
0.28543267 -0.045366164 0.17277437
0.29443577 -0.045489237 0.17281362
0.30447426 -0.044890024 0.17285693
0.3137843 -0.045668174 0.17289799
0.3248249 -0.044986811 0.17294571
0.33531746 -0.044311494 0.17299108
0.34279534 -0.045299679 0.17302428
0.35073584 -0.044787008 0.1730587
0.16845527 -0.035950344 0.17175823
0.17489482 -0.035200987 0.17228997
0.18465197 -0.03496103 0.17233196
0.19399142 -0.0344566 0.17237206
0.20447785 -0.034992624 0.172418
0.21477808 -0.034953583 0.17246275
0.22508605 -0.034768257 0.17250744
0.23558004 -0.035340592 0.17255355
0.24509472 -0.035057239 0.17259485
0.25419369 -0.035349369 0.17263182
0.26450294 -0.034424134 0.17267627
0.27547118 -0.035176128 0.17272457
0.28556147 -0.035562344 0.17276888
0.2939631 -0.034065098 0.17280483
0.3047792 -0.035621531 0.1728529
0.31519145 -0.034648515 0.17289799
0.32502937 -0.035105065 0.17294128
0.33636594 -0.035485964 0.17299108
0.34401509 -0.034770228 0.17302428
0.35195172 -0.034015942 0.1730587
0.16936249 -0.026925836 0.17150262
0.1748092 -0.024663175 0.172213
0.18483955 -0.025250288 0.17232592
0.19520634 -0.024926757 0.17237104
0.20549233 -0.025756709 0.17241639
0.21457478 -0.024109265 0.17245531
0.22444649 -0.025854079 0.1724994
0.23506986 -0.024507934 0.1725453
0.24575728 -0.025438255 0.17259258
0.25571889 -0.024715092 0.17263302
0.26589844 -0.024524031 0.17267753
0.27653432 -0.02550499 0.17272457
0.28511715 -0.023779942 0.17276156
0.29390866 -0.024513189 0.17280041
0.30624419 -0.025542025 0.17285492
0.31611249 -0.024971521 0.17289799
0.32566389 -0.026307616 0.17294039
0.33493844 -0.024014199 0.17298037
0.34492692 -0.024209656 0.17302428
0.35272399 -0.024756914 0.1730587
0.17467317 -0.014976953 0.17207257
0.18591075 -0.015505721 0.17232591
0.19602171 -0.01488007 0.17237011
0.20482533 -0.014939608 0.17240883
0.21479651 -0.015076092 0.17245267
0.22480385 -0.015778484 0.17249689
0.23445398 -0.014920811 0.17253907
0.24530602 -0.014572571 0.17258671
0.25650156 -0.014619512 0.17263302
0.26659429 -0.015194755 0.17267753
0.27629757 -0.016567992 0.17272055
0.28389657 -0.013687335 0.17275326
0.29458696 -0.014202742 0.17280042
0.30499643 -0.01552148 0.17284648
0.31393066 -0.014551869 0.17288555
0.32352406 -0.01559787 0.17292799
0.3342694 -0.014648874 0.17297502
0.34544396 -0.015138584 0.17302428
0.35318714 -0.017027998 0.1730587
0.17504376 -0.0056548454 0.17206918
0.18582562 -0.0053830631 0.17232305
0.19496784 -0.0051244125 0.17236324
0.20390414 -0.0053592888 0.17240265
0.21525063 -0.0056575118 0.17245266
0.22527912 -0.0059210947 0.17249687
0.23377731 -0.0051200199 0.17253423
0.24497898 -0.0053653507 0.17258359
0.25685626 -0.005625478 0.17263302
0.26696295 -0.0058468278 0.17267753
0.27489603 -0.006020572 0.17271249
0.28282231 -0.0056570196 0.17274734
0.29489043 -0.0051664826 0.17280042
0.30407587 -0.0053274115 0.17284088
0.31375358 -0.0054969653 0.1728835
0.3238574 -0.0056739841 0.17292799
0.33453885 -0.005861124 0.17297502
0.34572244 -0.0060570599 0.17302428
0.17492621 0.0049762637 0.17206307
0.18567915 0.0044858861 0.17232232
0.19498153 0.0042703436 0.17236324
0.20391849 0.0044660736 0.17240264
0.21526575 0.0047145928 0.17245264
0.22529495 0.0049342453 0.17249687
0.23379079 0.0040960163 0.17253423
0.24499305 0.0042922804 0.17258358
0.25687104 0.004500383 0.17263302
0.26697832 0.0046774624 0.17267753
0.27491185 0.0048164576 0.17271249
0.28292719 0.0043999036 0.17274773
0.29490367 0.0038748623 0.17280042
0.30408949 0.0039955587 0.17284086
0.31376761 0.0041227238 0.17288351
0.32387188 0.004255488 0.17292799
0.33455387 0.004395843 0.17297502
0.3457379 0.004542795 0.17302428
0.17467317 0.014976952 0.17207257
0.18591075 0.015505721 0.17232591
0.19602169 0.01488007 0.17237011
0.20482533 0.014939608 0.17240882
0.2147965 0.015076091 0.17245266
0.22480385 0.015778482 0.17249687
0.23445398 0.014920811 0.17253907
0.245306 0.014572571 0.17258669
0.25650159 0.014619512 0.17263304
0.26659429 0.015194755 0.17267753
0.27629757 0.016567992 0.17272055
0.2838966 0.013687334 0.17275326
0.29458693 0.014202742 0.17280042
0.30499646 0.015521482 0.17284648
0.31393066 0.01455187 0.17288555
0.32352406 0.015597871 0.17292799
0.33426937 0.014648874 0.17297502
0.34544396 0.015138584 0.17302428
0.35311255 0.01857481 0.1730587
0.16936249 0.026925836 0.17150261
0.17480922 0.024663173 0.17221297
0.18483955 0.025250288 0.17232589
0.19520633 0.024926759 0.172371
0.20549233 0.025756713 0.17241639
0.21457478 0.024109265 0.17245531
0.22444649 0.025854079 0.1724994
0.23506987 0.024507931 0.17254531
0.24575728 0.025438257 0.17259257
0.25571889 0.024715092 0.17263304
0.26589844 0.024524031 0.17267753
0.27653435 0.02550499 0.17272456
0.28511715 0.023779944 0.17276156
0.29390863 0.024513187 0.17280041
0.30624419 0.025542026 0.17285492
0.31611249 0.024971521 0.17289799
0.32566386 0.026307613 0.17294039
0.33493844 0.024014199 0.17298037
0.34492695 0.024209654 0.17302428
0.35272399 0.024756914 0.1730587
0.16845527 0.03595034 0.17175825
0.17489482 0.035200987 0.17228997
0.18465196 0.034961026 0.17233199
0.19399144 0.034456596 0.17237203
0.20447783 0.034992628 0.17241798
0.21477807 0.034953583 0.17246275
0.225086 0.034768257 0.17250744
0.23558004 0.035340596 0.17255354
0.24509472 0.035057243 0.17259488
0.25419369 0.035349369 0.17263183
0.26450294 0.03442413 0.17267627
0.27547118 0.035176128 0.17272457
0.28556147 0.035562348 0.17276888
0.2939631 0.034065098 0.17280483
0.3047792 0.035621531 0.1728529
0.31519145 0.034648515 0.17289799
0.32502937 0.035105065 0.17294128
0.33636594 0.035485964 0.17299108
0.34401509 0.034770228 0.17302428
0.35195172 0.034015939 0.1730587
0.16691583 0.045113157 0.17191257
0.17451343 0.045031164 0.17229798
0.18455063 0.04475278 0.17234065
0.19523597 0.044936437 0.17238668
0.20522135 0.045357954 0.17242998
0.21497087 0.044552114 0.17247124
0.22509798 0.044936255 0.1725153
0.23365627 0.045114532 0.17255245
0.24375534 0.045555387 0.17259631
0.25429916 0.045271415 0.1726391
0.26397511 0.044341676 0.17268039
0.27406994 0.044804092 0.17272457
0.28543264 0.045366161 0.17277437
0.29443577 0.04548924 0.17281362
0.30447429 0.044890024 0.17285693
0.3137843 0.045668177 0.17289799
0.32482496 0.044986811 0.17294571
0.33531746 0.044311494 0.17299108
0.34279534 0.045299679 0.17302428
0.35073584 0.044787008 0.1730587
0.16513965 0.054930836 0.17201845
0.17497754 0.055037163 0.17231217
0.18502626 0.055312138 0.17235483
0.19483081 0.055236015 0.17239618
0.20485097 0.054461833 0.17243786
0.21490461 0.055460379 0.17248185
0.22509725 0.05489216 0.17252478
0.23589583 0.054477688 0.17257068
0.24619368 0.055287335 0.17261411
0.25630248 0.055203736 0.17265622
0.26654443 0.055653483 0.17270073
0.27504316 0.054943249 0.17273678
0.28421783 0.054712664 0.17277621
0.29594389 0.055044875 0.17282724
0.30550709 0.055454653 0.17286898
0.31621125 0.055145089 0.17291515
0.32637534 0.054823458 0.17295898
0.33379418 0.054567628 0.17299107
0.34534642 0.054904368 0.17304148
0.15869245 0.066710874 0.1717217
0.16479984 0.064500906 0.17221481
0.17504176 0.065089621 0.1723267
0.18478362 0.065266222 0.17236739
0.19504915 0.064854875 0.17240956
0.20493655 0.065160088 0.17245139
0.21484382 0.064573266 0.17249237
0.22435357 0.065160483 0.17253333
0.23437786 0.065459177 0.17257613
0.2443836 0.064982802 0.17261651
0.25378594 0.064703405 0.17265499
0.26443136 0.064956188 0.17270073
0.27568346 0.065165192 0.17274912
0.28567198 0.065692432 0.17279248
0.29443178 0.064744994 0.17282918
0.30513611 0.0658172 0.17287622
0.31402019 0.064132333 0.172913
0.32453424 0.06480033 0.17295898
0.33567381 0.06549719 0.17300768
0.34584308 0.063571945 0.17305009
0.15600616 0.075384803 0.17193094
0.16500807 0.074817359 0.17230216
0.17487848 0.074534163 0.17234148
0.18514931 0.075347662 0.17238462
0.19460136 0.074615024 0.17242222
0.20459533 0.075391106 0.17246461
0.21501912 0.07515052 0.17250749
0.22561026 0.074585117 0.1725509
0.23590094 0.075174242 0.17259483
0.24549063 0.074822277 0.17263183
0.25581729 0.075527176 0.17267627
0.26528335 0.07531406 0.17271604
0.27376151 0.074381456 0.17275088
0.28513795 0.075362608 0.17280042
0.29468897 0.075131752 0.17284086
0.3047353 0.074856639 0.17288348
0.31521341 0.074509159 0.17292799
0.32510847 0.075954512 0.17297181
0.33470288 0.073879838 0.17301099
0.34547332 0.075297371 0.1730587
0.14826763 0.087298848 0.17169428
0.15461519 0.084494501 0.17220446
0.16475052 0.085037984 0.17232077
0.17526488 0.084952295 0.17236204
0.18499778 0.085323595 0.17240152
0.19483818 0.084922075 0.17244036
0.20467493 0.085286744 0.17248088
0.21452332 0.085440688 0.17252129
0.22463436 0.084557511 0.17256144
0.23473002 0.085156962 0.17260332
0.24516614 0.084766164 0.17264399
0.25511548 0.085003376 0.17268579
0.2643902 0.084967993 0.17272456
0.27568954 0.085368559 0.17277254
0.28426582 0.085090153 0.17280836
0.2953158 0.084997982 0.17285492
0.30547917 0.085048012 0.17289799
0.31467766 0.086125784 0.17293833
0.3247053 0.083701715 0.17297824
0.33504993 0.085421883 0.17302428
0.34301066 0.08585339 0.1730587
0.35162982 0.084744871 0.17309439
0.13939299 0.099913575 0.1715025
0.14544171 0.095616437 0.17200586
0.15511195 0.094557002 0.17230427
0.16486016 0.095043071 0.17234229
0.17496334 0.095289759 0.17238168
0.18516903 0.095195353 0.17242123
0.1951263 0.095577531 0.17246123
0.20498843 0.094993234 0.17249936
0.21485086 0.094482481 0.17253801
0.22508527 0.09467952 0.17257981
0.23472378 0.095497191 0.17261852
0.24445587 0.094761476 0.17265621
0.25482702 0.095091015 0.17269941
0.26561102 0.095748752 0.17274497
0.27448866 0.093549132 0.17277865
0.28535327 0.095844835 0.17282724
0.29560891 0.095000856 0.17286898
0.30489293 0.095046282 0.17290799
0.31553167 0.095042206 0.17295279
0.32461286 0.09498769 0.17299107
0.33416152 0.09619505 0.17303289
0.34496328 0.094414808 0.17307654
0.35010031 0.090893805 0.17309439
0.13630196 0.10613705 0.17186131
0.1447482 0.10489082 0.17229143
0.15524599 0.1047774 0.17232905
0.16515234 0.10510021 0.17236634
0.1748658 0.104993 0.17240249
0.18485318 0.10489499 0.17244032
0.19517346 0.10542601 0.17248124
0.20512448 0.10459315 0.17251837
0.21475269 0.10480388 0.17255677
0.22448587 0.10534713 0.17259623
0.23454517 0.10485265 0.17263302
0.24564566 0.10469121 0.17267753
0.25631633 0.10586338 0.17272285
0.26467624 0.10430836 0.17275444
0.27508768 0.10540532 0.17279893
0.28518009 0.10563466 0.17284086
0.29496044 0.10569612 0.17288141
0.30538633 0.10378601 0.17292199
0.3137193 0.10538816 0.17295898
0.32461303 0.10525557 0.17300436
0.33616224 0.10447682 0.1730518
0.34623003 0.10461417 0.17309439
0.12681131 0.11684649 0.17182201
0.13453867 0.11496422 0.17221475
0.14505179 0.11509562 0.17231964
0.15481679 0.11475466 0.17235287
0.16509196 0.11508085 0.17239049
0.17506868 0.11489929 0.17242648
0.18483855 0.11474475 0.17246245
0.19507067 0.11507356 0.17250174
0.20476499 0.11471315 0.17253797
0.2146115 0.11533731 0.17257734
0.22440042 0.11537956 0.17261407
0.23517339 0.1146204 0.17265373
0.24479005 0.11464429 0.17269199
0.2535952 0.11415048 0.17272629
0.26487342 0.11563718 0.17277439
0.27561909 0.11634469 0.17281909
0.2854816 0.11497807 0.17285693
0.29537171 0.11533315 0.17289799
0.30493274 0.11599869 0.17293833
0.31590214 0.11387794 0.17298037
0.32629281 0.11440428 0.17302428
0.33418527 0.11553052 0.1730587
0.34286836 0.11518025 0.17309439
0.35136226 0.11632366 0.17313145
0.11652828 0.12683797 0.17175807
0.12461712 0.12525056 0.17221345
0.13495493 0.12544748 0.17231558
0.14498197 0.12497865 0.17234713
0.15515684 0.12460848 0.1723806
0.16515109 0.1250734 0.17241658
0.17492816 0.1250588 0.17245127
0.18513316 0.1248787 0.17248774
0.19486438 0.12532337 0.17252465
0.20511936 0.12470943 0.17256153
0.21496418 0.12495479 0.17259905
0.22507294 0.12443684 0.17263424
0.23496781 0.12548302 0.17267467
0.24479845 0.12528388 0.17271262
0.25507954 0.12414674 0.17275088
0.26564324 0.12581825 0.17279601
0.27520874 0.12449405 0.17283177
0.28510606 0.12627842 0.17287478
0.29483649 0.12567058 0.172913
0.30492505 0.12495591 0.17295279
0.31396934 0.12577528 0.17299107
0.32365638 0.12604491 0.17303117
0.33538151 0.12422995 0.17307654
0.34674579 0.12328336 0.1731222
0.099097311 0.1399743 0.17150235
0.10604127 0.13651724 0.17183962
0.11495729 0.13490269 0.17224859
0.12484115 0.13497038 0.17231379
0.13508853 0.13534415 0.17234629
0.14543657 0.13519071 0.17237863
0.15523969 0.13456203 0.17240895
0.16500396 0.13505228 0.17244324
0.17439181 0.13509762 0.17247577
0.18429415 0.13493964 0.17251022
0.19457623 0.1351248 0.17254758
0.2046133 0.13478282 0.17258339
0.21500747 0.13524176 0.17262104
0.22538055 0.13394777 0.17265621
0.23472682 0.1357321 0.17269568
0.24487996 0.1351454 0.17273331
0.25553462 0.13503164 0.17277437
0.26485792 0.13379011 0.17280836
0.27443382 0.13591771 0.17285024
0.2845898 0.13479201 0.17288832
0.29392916 0.1360763 0.17292799
0.30502853 0.1357283 0.17297181
0.3163532 0.13484183 0.17301598
0.32706243 0.13435662 0.1730587
0.33575118 0.13450101 0.17309439
0.34475338 0.13461509 0.17313145
0.35230473 0.1393449 0.17316993
0.086878069 0.14829795 0.17163014
0.095106915 0.14539704 0.17200427
0.1046764 0.14501578 0.17229168
0.11479595 0.14473228 0.17231761
0.1248537 0.14483915 0.17234626
0.13529326 0.14491722 0.17237723
0.14509484 0.14522442 0.17240821
0.15497763 0.14498527 0.1724388
0.1648441 0.1450571 0.17247123
0.17512912 0.14512122 0.17250589
0.18531571 0.14473376 0.17253982
0.19476502 0.14483404 0.17257321
0.20460007 0.14475861 0.17260729
0.21437317 0.1449495 0.17264122
0.22486597 0.14453444 0.1726788
0.23529872 0.1452661 0.17271939
0.24440336 0.14461721 0.17275222
0.25491005 0.146347 0.17279601
0.26503077 0.14366867 0.17282918
0.27556494 0.14593038 0.17287478
0.28496706 0.14519033 0.17290999
0.29644799 0.14391616 0.17295279
0.30567247 0.14477752 0.17299107
0.31377363 0.14526342 0.17302428
0.32215524 0.14573091 0.1730587
0.33340788 0.14557512 0.17310366
0.34513819 0.14532822 0.17315069
0.3510707 0.1424254 0.17316993
0.082551301 0.15032744 0.17150229
0.1544548 0.1500103 0.17245233
0.18780789 0.15015712 0.17256317
0.20552056 0.15005457 0.17262219
0.21759869 0.15027015 0.1726661
0.23029217 0.15025593 0.17271249
0.26441422 0.15026762 0.17284086
0.28704897 0.1500802 0.17292799
0.29462039 0.1507677 0.17295898
0.32890031 0.15052077 0.17309439
0.33788702 0.15106827 0.17313145
