# .PCD v0.7 - Point Cloud Data file format
VERSION 0.7
FIELDS x y z
SIZE 4 4 4
TYPE F F F
COUNT 1 1 1
WIDTH 712
HEIGHT 1
VIEWPOINT 0 0 0 1 0 0 0
POINTS 712
DATA ascii
3.7754066 0.63418043 -0.65766478
3.238492 -0.73562402 -0.52557814
3.251122 -0.64913899 -0.53220266
3.3545833 -0.68510634 -0.58818042
5.2016473 0.59487659 -0.52359414
3.7559054 0.69876456 -0.58722609
3.3689017 0.74973643 -0.53050196
3.4359889 0.75201899 -0.54703575
3.5387955 0.72272801 -0.57147884
3.387233 0.84788632 -0.50529265
3.4352787 0.82792252 -0.54315513
3.1573632 -0.72007686 -0.44550243
3.1475966 -0.64552689 -0.43893635
3.2487402 -0.6044094 -0.44853279
5.1482677 0.55829751 -0.45653054
5.1264057 0.6318084 -0.44783431
3.2858295 0.76151514 -0.44273153
3.3383496 0.75823635 -0.45450199
3.4383571 0.73364562 -0.445712
3.5382936 0.72262549 -0.45782864
3.6436033 0.71094549 -0.42086649
3.2971001 0.84063208 -0.40093029
3.3310421 0.85591835 -0.44488904
3.1369417 -0.93274236 -0.34199664
3.131592 -0.88166553 -0.33512923
3.2016902 -0.84623122 -0.31649244
3.0956914 -0.71744925 -0.34608868
3.110122 -0.7207936 -0.37617937
2.9730747 -0.63436782 -0.30402246
3.0604649 -0.64810234 -0.33159325
3.1094792 -0.65781915 -0.36320382
3.2483943 -0.60434502 -0.35987362
3.0656397 -0.59817243 -0.31236845
3.2500594 0.76820606 -0.34904528
3.3431637 0.74400854 -0.34253922
3.4379423 0.73355705 -0.35157838
3.5378666 0.72253829 -0.36113596
3.6431644 0.71085989 -0.32175905
3.176492 0.88436252 -0.30045089
3.2688615 0.84440339 -0.3463302
3.3434734 1.0519123 -0.3319568
3.407124 1.0132074 -0.33968452
3.3588204 1.1118677 -0.33822936
3.089319 -0.93346769 -0.2463094
3.1149724 -0.96817142 -0.25092244
3.3576686 -0.90319014 -0.255169
3.0910022 -0.88004589 -0.26429108
3.1218321 -0.85927844 -0.25195184
3.296092 -0.85573858 -0.28008205
3.3621197 -0.86241919 -0.24448495
2.9171681 -0.70305479 -0.26016825
2.8791234 -0.69388586 -0.2173405
2.9858274 -0.66459525 -0.24821754
3.0546331 -0.63758749 -0.26351553
3.0518668 -0.59548497 -0.25578737
3.5644999 0.67931974 -0.23419036
3.601007 0.66994661 -0.2688024
3.1966939 0.77042222 -0.21221708
3.23276 0.76106441 -0.24958214
3.3427629 0.74391931 -0.2513313
3.4375298 0.73346907 -0.25796357
3.550818 0.71700644 -0.26585704
3.0713172 0.84353399 -0.22257845
3.1598692 0.85650325 -0.25964829
3.2319729 0.80894232 -0.24455221
3.0450809 0.90554339 -0.20503083
3.1285837 0.90062505 -0.29665422
3.3376324 0.99254203 -0.27091503
3.2965207 1.059432 -0.28479034
3.3142846 1.0491848 -0.24996126
3.3220055 1.1159661 -0.25710472
3.0958571 -0.93544656 -0.15156542
3.1206033 -0.96800834 -0.14352213
3.0952444 -0.89102769 -0.17940634
3.12743 -0.855838 -0.15670235
3.2150548 -0.84982264 -0.14112234
3.3640141 -0.84199136 -0.16253525
2.8691912 -0.72708535 -0.17357416
2.8723853 -0.65853685 -0.16409151
2.9319935 -0.65264904 -0.1249753
3.0617948 -0.62531018 -0.13267958
3.3954763 -0.60098732 -0.14640218
3.4064806 -0.60293502 -0.10112137
2.8921523 -0.55120397 -0.17701907
3.0430536 -0.59376538 -0.13163751
3.4478645 -0.54800308 -0.13278109
2.8979623 -0.48679018 -0.16367781
2.9043775 -0.44314918 -0.17849907
3.4760787 -0.45936033 -0.13334757
2.9148085 -0.34628811 -0.17648245
3.4808598 -0.35181376 -0.1485436
2.8886416 -0.2154386 -0.1102116
2.9260905 -0.24404037 -0.17653926
3.4905224 -0.24498487 -0.16400756
2.9371052 -0.14588597 -0.16959894
2.6038961 -0.057042826 -0.12207984
2.9474428 -0.051625088 -0.17723735
2.6094582 0 -0.12230539
2.9545009 0.045841418 -0.15856154
2.9624915 0.13909617 -0.15774639
3.0037642 0.17121172 -0.11447199
2.9715343 0.24271996 -0.17147484
3.0127001 0.25132895 -0.11502907
2.9896696 0.35519248 -0.16108608
3.0118113 0.35777426 -0.15550852
2.9828312 0.4297322 -0.15031354
3.0106916 0.45841834 -0.18983313
3.5662937 0.43957534 -0.16842157
3.0152702 0.53827614 -0.17966156
3.5787919 0.54332966 -0.15687568
3.0201781 0.64447159 -0.17201556
3.5652165 0.65239936 -0.14857757
3.0312707 0.74472904 -0.17387097
3.1946838 0.76993775 -0.13952383
3.2522869 0.75374144 -0.14174816
3.3422308 0.74380088 -0.13028166
3.4370506 0.73336685 -0.14921804
3.5337069 0.72168875 -0.13721557
3.0524783 0.84991664 -0.14839007
3.1705108 0.8231349 -0.13907892
3.2228317 0.80665433 -0.14105572
3.0488169 0.91396898 -0.1561797
3.3322275 0.99093473 -0.10161889
3.3147233 1.0493001 -0.13230571
3.3381729 1.129599 -0.12630321
3.0831439 -0.93655252 -0.070562623
3.1313589 -0.94119453 -0.03317726
3.0895646 -0.8796379 -0.075056404
3.1525912 -0.84796888 -0.054974355
2.9290931 -0.7059288 -0.074741736
2.9521141 -0.65937114 -0.052034929
3.0717697 -0.62734741 -0.063982435
3.4249535 -0.60620469 -0.071019292
2.8567321 -0.54881567 -0.016651724
2.9259994 -0.53112233 -0.0083333943
3.0517032 -0.59545302 -0.063458197
3.4377189 -0.57745671 -0.071176372
2.8593638 -0.4289481 -0.059037145
2.9273391 -0.44790268 -0.025627814
2.8705273 -0.32828242 -0.084454343
2.9440184 -0.34676522 -0.038408656
2.9568164 -0.24660403 -0.047526944
2.5635986 -0.12079822 -0.060881529
2.8876901 -0.15190141 -0.0081031658
2.9642346 -0.17676322 -0.044945158
2.3618731 -0.051730059 -0.006620422
2.4471943 -0.042859387 -0.039266635
2.5489154 -0.062630475 -0.076725289
2.3641663 0 -0.0066249426
2.5640235 0.012473112 -0.057328865
2.9909136 0.065512396 -0.061091721
2.9967206 0.11818858 -0.06124324
3.0025861 0.17114456 -0.061414961
3.0275843 0.25529316 -0.051110584
2.9465556 0.35005468 -0.0083150761
3.0211306 0.34286803 -0.056754768
3.0326908 0.4414562 -0.049090017
2.9722204 0.53949797 -0.088300452
3.0421464 0.54914486 -0.040030181
2.9766879 0.63513881 -0.062147584
3.0444353 0.65312231 -0.029208841
2.9859183 0.71962404 -0.035657402
3.0454369 0.74794924 -0.0087880483
3.1974192 0.77059698 -0.096138716
3.2350836 0.75962323 -0.077658474
3.0931711 0.86120087 -0.093856841
3.1385672 0.85065705 -0.053695135
3.2327907 0.80914706 -0.068010017
3.1403966 0.90402567 -0.037938856
3.3245087 0.98863935 -0.070819341
3.2963076 1.0593696 -0.055423737
3.3473341 1.0416797 -0.033696622
3.3257525 1.1335866 -0.071743801
2.9802418 -0.92424518 0.046269681
3.0028887 -0.95055944 0.060529284
2.8816509 -0.85708946 0.018052625
2.9578576 -0.84809715 0.069274046
2.8441322 -0.75183094 0.0176652
2.9184284 -0.74422336 0.071152523
2.8764522 -0.67986929 0.017747868
2.9124854 -0.64574558 0.060917523
2.8694799 -0.53385025 0.094671428
2.9216385 -0.56061572 0.051559389
4.2581897 -0.52480441 0.063550688
2.8540702 -0.45374995 0.068266392
2.9327638 -0.45749998 0.035254888
4.2664266 -0.45009884 0.063547798
2.8741257 -0.37980965 0.042942442
2.9444468 -0.34981048 0.017805276
4.2620974 -0.34132338 0.058466341
2.8736889 -0.27774045 0.017335624
4.2640357 -0.27414042 0.063097402
2.3215818 -0.1108038 0.050431099
2.315062 -0.050704796 0.044531848
2.3210945 0.020356612 0.04860669
4.3568988 0.36980352 0.051922962
2.9778409 0.48673344 0.018118057
4.3669562 0.46075484 0.045706179
2.9900517 0.58342355 0.045124684
3.0455596 0.56665844 0.018601546
4.3777952 0.55904061 0.045935981
3.0474436 0.65421742 0.038245786
4.3878565 0.65043819 0.050088257
2.9879022 0.74785292 0.099905118
3.0666027 0.753411 0.046775173
3.0764875 0.85657024 0.047323499
3.0553296 0.93775302 0.033393856
3.1183758 0.97219247 0.062771797
3.0767131 1.0335646 0.019488841
3.1616788 1.055899 0.055368625
2.9759188 -0.9276638 0.11481633
3.0027125 -0.95050365 0.10215909
2.9290192 -0.86003268 0.12047032
2.9034131 -0.75384527 0.12375411
3.2213182 -0.7317214 0.19461292
2.8699169 -0.67195266 0.12814265
2.9705634 -0.65431583 0.14564732
3.1777492 -0.63453555 0.16232601
3.2384408 -0.63186175 0.17689964
4.2559643 -0.54346424 0.10135293
4.2662635 -0.45008159 0.10134076
0.093563057 -0.14555377 0.17187263
0.15158679 -0.1260296 0.17233497
0.24339677 -0.12348124 0.17270671
0.32545915 -0.12370342 0.17303608
2.3646026 -0.1036253 0.14999335
0.17687312 -0.055904161 0.17225914
0.24249463 -0.048887156 0.17259963
0.32506612 -0.049781993 0.17295498
2.5329912 -0.051815066 0.17169188
0.17695323 0.055234212 0.17225869
0.24255301 0.04776679 0.1725996
0.32483149 0.048462898 0.1729534
2.3662066 0.02072639 0.1499569
2.5448821 0 0.16502462
0.093037672 0.14600107 0.17188823
0.15146396 0.12665212 0.17233771
0.24346928 0.12449768 0.17270941
0.32495421 0.12507953 0.17303632
4.3559604 0.36332148 0.10325605
4.3667026 0.46072808 0.10372671
4.3775396 0.55900788 0.10424823
4.3487267 0.65237761 0.12313835
3.0704608 0.79715967 0.10289512
3.2843828 0.76117986 0.12426083
3.3335299 0.76019698 0.14110406
3.4357541 0.73309022 0.14493828
3.0592968 0.85160768 0.12746114
3.1318359 0.8718729 0.14368099
3.3572812 0.83415508 0.1611177
3.0417511 0.9394089 0.13126786
3.1181791 0.97213113 0.10594346
3.1748953 1.051191 0.10847965
2.5946257 -1.4484282 0.25072348
2.5953176 -1.3570184 0.23734541
2.5960352 -1.252064 0.24123025
1.9770343 -1.100759 0.26389784
2.5967615 -1.147514 0.24267936
1.9775164 -1.0451001 0.25089806
2.5937538 -1.0490851 0.22986867
1.9793788 -0.95124429 0.25163484
2.584846 -0.95196527 0.2249386
1.9788631 -0.84094214 0.25702786
2.2863817 -0.81290919 0.29380769
2.3207641 -0.83661568 0.26567221
2.4522712 -0.85986739 0.26816216
2.5765777 -0.84993881 0.24522191
1.980951 -0.75519323 0.25871062
2.5994432 -0.76319015 0.24600725
2.6039569 -0.71269059 0.20682114
3.2642899 -0.74148268 0.22680768
2.5998764 -0.69325811 0.25985235
2.6053472 -0.63506293 0.24595182
3.2611873 -0.65124971 0.22533479
4.1402674 -0.63966799 0.26533207
2.609277 -0.54484922 0.25139421
4.1409259 -0.54724163 0.26454714
2.6160607 -0.44840217 0.24799252
4.1417136 -0.43696395 0.26377258
2.6174135 -0.35280874 0.24897757
4.1423664 -0.34549654 0.26326486
2.610568 -0.25342271 0.25371665
4.1430173 -0.2543543 0.26289338
2.3898008 -0.10472957 0.22574921
2.4082248 -0.10553699 0.28112113
2.6036582 -0.15984765 0.25774199
4.1439266 -0.12708154 0.26257607
2.2860777 -0.040031672 0.29218745
2.3164949 -0.040546805 0.26325309
2.5452845 -0.055759944 0.22897261
2.6042342 -0.068452701 0.27477989
4.144444 -0.054456055 0.26250812
2.3914163 0.020947209 0.22569387
2.4098458 0.021108638 0.2810514
2.5481052 0 0.22915068
2.6052039 0.058697335 0.26079485
4.145206 0.048417728 0.25644991
2.60586 0.14853916 0.2578989
4.1458707 0.14532493 0.26274127
2.6171563 0.25298318 0.2519908
4.1466508 0.25458038 0.26312387
2.6215329 0.35337406 0.24938715
4.1473017 0.34590933 0.26357853
2.6210322 0.44926238 0.2484892
4.1479573 0.43762574 0.26417026
2.6155765 0.54616773 0.25202817
4.1487474 0.54827827 0.26504686
5.1929097 0.59387732 0.21562828
1.9896231 0.66979986 0.25689805
2.0054362 0.6348176 0.27351859
2.6126225 0.64182758 0.2418744
4.1494098 0.64108169 0.26591802
1.9901872 0.74725485 0.25745273
2.3262758 0.7363708 0.27368379
2.4445553 0.75022292 0.27538115
2.5593283 0.75014234 0.26477742
2.6101861 0.731713 0.22929215
3.3834162 0.76340491 0.21457535
3.4404345 0.73408884 0.22282299
1.9909127 0.84595358 0.25667378
2.4747427 0.80729115 0.24560148
2.5938542 0.89671612 0.23457652
2.6095581 0.83871496 0.22213598
3.4331436 0.82733923 0.22375792
1.9920355 0.95540756 0.25531539
2.0052738 0.96054482 0.20978339
2.5859082 0.91940409 0.23457724
2.6118114 0.95455968 0.22716363
1.9921293 1.0194432 0.27096501
2.6124249 1.0466493 0.24056673
2.6131964 1.1547816 0.24421544
2.6138918 1.2481432 0.24023341
2.6145048 1.3380226 0.25104985
2.5940714 -1.4742206 0.34797132
1.976683 -1.1005636 0.35522994
1.9770806 -1.0448706 0.35113126
1.9777746 -0.94754821 0.34436432
1.9784404 -0.84571558 0.35297167
2.2611151 -0.80392581 0.35521755
2.3492451 -0.81215274 0.31194162
2.4511311 -0.81303728 0.35238245
2.5565889 -0.81331795 0.34494758
1.9797176 -0.75317067 0.35173878
2.2427051 -0.79738027 0.35223177
2.3086498 -0.79811859 0.36150753
2.5990632 -0.75843382 0.34352472
2.5996597 -0.66421503 0.35826275
2.6000977 -0.61704004 0.33311787
2.6005132 -0.5430299 0.35737568
2.601186 -0.44870335 0.35508853
2.6018522 -0.35546288 0.35326147
4.1421242 -0.3454763 0.3184225
2.6025939 -0.25157529 0.35175186
4.1427751 -0.2543394 0.31797317
2.4228859 -0.11531217 0.35271597
2.6032367 -0.16439863 0.34620959
4.1438146 -0.10891342 0.31755677
2.2806919 -0.03993329 0.34788713
2.4332685 -0.085287951 0.37126255
2.6271036 -0.092082016 0.34202203
4.1443319 -0.036301579 0.31749898
2.4269161 0.023614075 0.35675099
2.6101999 0.056182127 0.34496179
4.1451092 0.072622344 0.31759506
2.6054502 0.14851578 0.35106301
4.1456294 0.14531647 0.31778932
2.6061883 0.25192857 0.3522377
4.1464086 0.25456551 0.31825209
2.6069322 0.35616061 0.35395122
4.1469288 0.32758945 0.31867543
2.6076005 0.4498136 0.35596418
2.6082778 0.54465503 0.35844275
1.9892309 0.66828418 0.34846601
2.0049012 0.63464814 0.34919864
2.6090167 0.64095849 0.34939125
1.9897933 0.74710679 0.35295808
2.2923489 0.70360887 0.34404552
2.3116765 0.7095412 0.31441286
2.4431949 0.71769208 0.35394475
2.5620124 0.71723747 0.34206656
2.6094518 0.70192492 0.35140496
1.9905568 0.84860289 0.34952661
1.9913501 0.95405841 0.34672844
1.9918158 1.0192827 0.35131326
2.6143422 1.3610731 0.33588219
2.5936615 -1.4739878 0.45493022
1.9763273 -1.1003654 0.44763204
1.9766849 -1.0446613 0.45272598
1.9773794 -0.94735861 0.4440012
1.9780422 -0.8432672 0.45518643
2.3060298 -0.81989497 0.42852089
2.4438968 -0.82098168 0.4047358
2.5623984 -0.83869004 0.45315224
1.9797773 -0.75474936 0.44645712
2.5985997 -0.76046866 0.4495911
2.5993316 -0.65069908 0.4570857
2.5998414 -0.56904298 0.47083163
2.6002188 -0.53108048 0.44502342
2.600774 -0.44863215 0.45018888
2.6014395 -0.35540646 0.44787237
2.602181 -0.25153539 0.44595852
2.4368396 -0.11751011 0.40505254
2.6028287 -0.15598786 0.45265543
2.2952907 -0.04021351 0.40194154
2.3246689 -0.045833848 0.41771197
2.6033692 -0.07413663 0.46197069
2.4384909 0.03206351 0.40489158
2.6043077 0.051724251 0.45299578
2.605037 0.14849222 0.4450852
2.6057746 0.25188857 0.44657451
2.6065187 0.35610408 0.44874692
2.6071873 0.44974226 0.45129901
2.6078641 0.54456872 0.45444149
1.9888314 0.66814989 0.4441081
2.0045733 0.63454431 0.42569932
2.6085515 0.64084429 0.45819438
1.9893942 0.74695694 0.44983304
2.565377 0.74119401 0.44884858
2.6089904 0.7067138 0.46842861
1.9901503 0.84843546 0.44997749
1.9909514 0.95386755 0.44704923
1.9914979 1.0191201 0.43245706
2.613939 1.3666675 0.44980848
2.5567179 -1.4529927 0.55500126
2.5637379 -0.91152155 0.55078876
2.5642037 -0.8490054 0.54679501
2.5611644 -0.75168788 0.54902226
2.5674 -0.6510644 0.5461961
2.5662065 -0.5569815 0.54604703
2.6000943 -0.50733447 0.51207721
2.5585141 -0.45291662 0.56195658
2.6005139 -0.44858733 0.51012862
2.5592511 -0.34964275 0.55863822
2.6011786 -0.35537088 0.50750363
2.5599809 -0.24745619 0.55625105
2.6019206 -0.25151026 0.50533515
2.5607052 -0.1459617 0.55471009
2.6026568 -0.14835298 0.50393516
2.5613463 -0.056100365 0.55408263
2.6033094 -0.057019472 0.50336534
2.5620675 0.044897135 0.55420679
2.6040421 0.045632698 0.50347799
2.5627899 0.1460841 0.55516183
2.6047759 0.14847736 0.50434542
2.5635154 0.24780361 0.55701935
2.6055145 0.25186345 0.50603318
2.5642486 0.35032916 0.55972922
2.6062579 0.35606843 0.50849468
2.5648997 0.44013172 0.5604161
2.606926 0.44969723 0.51138657
2.5657079 0.54753852 0.55529541
2.6076035 0.54451442 0.51494753
2.5724428 0.65590286 0.54963458
2.6043146 0.60356903 0.51675755
2.5679088 0.75149 0.55402941
2.6092715 0.76353717 0.50073302
2.5674968 0.81273687 0.59477544
2.6095374 0.80096602 0.50275463
2.571707 1.3589959 0.56228781
2.6136806 1.3665324 0.51640052
2.5569804 -1.4320399 0.66278034
2.6215291 -1.4000106 0.68387157
2.6219447 -1.341827 0.6777699
2.5528102 -1.2228199 0.66449112
2.6223001 -1.2844652 0.68548155
2.5592201 -1.1757207 0.66990662
2.6233366 -1.1317935 0.68399304
2.6239464 -1.043277 0.68129146
2.5548267 -0.92805523 0.65923524
2.6129899 -0.90333146 0.67477882
2.5555513 -0.8461408 0.61948091
2.6253378 -0.8438009 0.67307293
2.5562723 -0.73248798 0.63311851
2.6258759 -0.76839519 0.6677717
2.5645418 -0.66210967 0.64372784
2.6268742 -0.62094444 0.67143846
2.5577769 -0.55049896 0.6069299
2.6273348 -0.55343449 0.67292005
2.5582237 -0.43800145 0.65260112
2.627764 -0.48888037 0.67735136
2.5589905 -0.34960717 0.61834621
2.628283 -0.3473646 0.67189968
2.559762 -0.23047525 0.6333648
2.6294386 -0.25414595 0.66947156
2.5602221 -0.15943372 0.64294249
2.6303482 -0.12681745 0.66736025
2.5610857 -0.056094665 0.61330384
2.6308413 -0.057622489 0.66689646
2.5617745 0.059320472 0.64432544
2.6313355 0.011524728 0.66684258
2.5623345 0.13158777 0.63483685
2.6324065 0.16161457 0.66837436
2.5713296 0.26571316 0.63717079
2.6329865 0.24286786 0.67011297
2.5637839 0.34234005 0.65275329
2.634074 0.3951512 0.67499316
2.5647435 0.4493688 0.61854023
2.6344974 0.45445335 0.67752397
2.5683844 0.55906862 0.635952
2.6350589 0.52855796 0.67354071
2.5660622 0.63892758 0.6296131
2.6361589 0.67211002 0.66398805
2.5669532 0.75121796 0.61548364
2.6366909 0.74661458 0.6688633
2.5673637 0.83506793 0.66655338
2.6221189 0.80482775 0.66944021
2.6381185 0.94549972 0.68213099
2.5691566 1.0818263 0.68037629
2.6298463 1.0401381 0.67706102
2.569495 1.1219126 0.67125654
2.6398959 1.1802896 0.67884994
2.6403482 1.2412747 0.68040013
2.571419 1.3445235 0.65435368
2.6248806 1.3143606 0.67550063
2.5652895 -1.4282247 0.74786431
2.6215718 -1.3562338 0.74809009
2.5524945 -1.2226686 0.74387771
2.6220305 -1.2843331 0.75362593
2.5661538 -1.174334 0.74536139
2.6230655 -1.1316766 0.75086451
2.6236105 -1.053787 0.74579543
2.5544212 -0.9358477 0.74421382
2.6126726 -0.90322179 0.75266677
2.6250122 -0.84369636 0.7507621
2.5559292 -0.71159256 0.74753618
2.6255503 -0.76829994 0.74484903
2.5675528 -0.66652364 0.74741954
2.6264927 -0.62085426 0.76043022
2.6270087 -0.54856259 0.75617582
2.5578346 -0.42967829 0.75552082
2.627435 -0.48881915 0.7529971
2.6279578 -0.34732169 0.74693787
2.5594587 -0.20218618 0.74785787
2.6291111 -0.25411427 0.74423772
2.5596995 -0.16840033 0.74722433
2.6300194 -0.12680161 0.74189049
2.6305134 -0.05761531 0.74137515
2.5613823 0.067326151 0.74637228
2.6310074 0.011523291 0.74131513
2.5617027 0.11226293 0.74690503
2.6320786 0.16159442 0.74301815
2.5843906 0.29555893 0.75770438
2.6326585 0.24283759 0.74495071
2.5633199 0.33875597 0.75317121
2.6337454 0.39510196 0.75037605
2.6341693 0.45439664 0.75318927
2.5698097 0.57188976 0.74178982
2.6346805 0.52608222 0.75699717
2.5654225 0.61828196 0.74351788
2.6358321 0.67202669 0.74062854
2.6363642 0.74652219 0.74606675
2.5669854 0.83516687 0.75708109
2.6217866 0.80472583 0.74670815
2.6378787 0.95103323 0.75022137
2.5688384 1.0816923 0.75890845
2.6295743 1.0400305 0.7432546
2.5691776 1.1217741 0.7500065
2.6396234 1.1801678 0.74633485
2.6401863 1.2546824 0.74671084
2.5711143 1.3415 0.75402355
2.6246076 1.3142239 0.74391013
2.5613458 -1.428717 0.85047555
2.6211877 -1.3518776 0.8530432
2.5520675 -1.2224641 0.85137475
2.6216481 -1.2841458 0.85033995
2.5646343 -1.1736437 0.84859151
2.6226642 -1.1295573 0.85325176
2.6232014 -1.0509619 0.85025793
2.5540223 -0.93339849 0.84433651
2.6122425 -0.90307301 0.85819364
2.6245713 -0.84355468 0.85601914
2.5554976 -0.71147245 0.84933877
2.625109 -0.76817083 0.84927672
2.5671227 -0.66641194 0.8492074
2.6261053 -0.62076265 0.85088181
2.6265936 -0.54607207 0.8563872
2.5574014 -0.42960545 0.85557771
2.626992 -0.48873675 0.85554355
2.6275191 -0.34726375 0.84866035
2.559025 -0.20215192 0.84689987
2.6286671 -0.25407133 0.84559107
2.5592656 -0.1683718 0.84618247
2.6295755 -0.12678021 0.84292406
2.6300695 -0.057605576 0.84233856
2.5609486 0.067314751 0.84521776
2.6305628 0.011521344 0.84227037
2.5612683 0.11224389 0.84582084
2.631634 0.16156712 0.8442052
2.5839281 0.29550606 0.8580423
2.6322138 0.24279656 0.84640104
2.5628855 0.33869851 0.8529169
2.6333013 0.39503527 0.85256541
2.633724 0.45431983 0.85576165
2.569371 0.57179224 0.84280825
2.6342473 0.52428198 0.85437965
2.56499 0.61817783 0.84477341
2.6353889 0.67191362 0.84446454
2.635921 0.74639654 0.85066503
2.566648 0.83981049 0.84632939
2.6213365 0.8045876 0.8513934
2.6374996 0.95348918 0.84650958
2.5684609 1.0815334 0.8518464
2.6291316 1.0398555 0.85066074
2.5688009 1.1216098 0.84332418
2.6392388 1.1799958 0.84211314
2.6397414 1.2504265 0.8508662
2.5706937 1.3467469 0.84911925
2.6241646 1.314002 0.85485649
2.5659547 -1.4256482 0.94839156
2.6207483 -1.3599653 0.951509
2.5516875 -1.2222823 0.94723624
2.621258 -1.2839547 0.94869477
2.5619831 -1.1749083 0.95371318
2.6222553 -1.133273 0.94842941
2.6228068 -1.0469953 0.95343667
2.5535867 -0.93323922 0.95041972
2.6118579 -0.90294009 0.9523564
2.6241801 -0.84342867 0.94994146
2.5550604 -0.71135068 0.95343131
2.6246617 -0.76803982 0.95598078
2.5666857 -0.66629851 0.95328474
2.6257129 -0.6206699 0.94316751
2.6261702 -0.55116111 0.94722307
2.5569599 -0.42953134 0.95795488
2.6265986 -0.48866352 0.94710439
2.6270719 -0.34720466 0.95267075
2.5585825 -0.20211695 0.94823837
2.6282167 -0.25402787 0.94922417
2.5588241 -0.16834275 0.9474355
2.6291249 -0.12675849 0.94623029
2.6296191 -0.057595726 0.94557309
2.5605061 0.067303121 0.9463551
2.6301122 0.011519371 0.9454965
2.5608256 0.1122245 0.94703025
2.6311831 0.16153945 0.94766837
2.5834558 0.29545203 0.96070462
2.631763 0.24275501 0.95013344
2.562443 0.33864 0.95497566
2.6328495 0.3949675 0.95705295
2.6332729 0.45084912 0.95471823
2.5689261 0.57169324 0.94609839
2.6338863 0.5276373 0.94469422
2.5645502 0.61807179 0.94830608
2.6349397 0.67179918 0.95056391
2.6354647 0.74376971 0.95457739
2.5662251 0.83718246 0.94362211
2.6208766 0.80444646 0.95835847
2.6370435 0.95071965 0.95232701
2.5680785 1.0813724 0.94660944
2.6269295 1.041641 0.95166445
2.5683653 1.1214195 0.95205188
2.6387925 1.1797962 0.95363832
2.6393511 1.2502414 0.94928265
2.5703156 1.3413358 0.9526546
2.6237695 1.3138043 0.95373219
2.5555599 -1.4312437 1.0341939
2.5555298 -1.3466156 1.0500929
2.6205254 -1.3556923 1.0167565
2.556304 -1.2522825 1.0409245
2.6123176 -1.2795756 1.0167108
2.5611246 -1.1528122 1.0456512
2.6220126 -1.1312222 1.0122696
2.5525303 -1.0443435 1.0512255
2.6173799 -1.0574595 1.0193866
2.5536368 -0.9460113 1.0472082
2.6116347 -0.90286297 1.0070095
2.5576289 -0.84689963 1.0496006
2.6175756 -0.84126288 1.0157351
2.5558465 -0.74796206 1.0510679
2.6243751 -0.76795602 1.0238678
2.5612793 -0.65300947 1.0431916
2.6173623 -0.61468649 1.015664
2.5557752 -0.55240601 1.0533706
2.6198161 -0.54703432 1.0155988
2.5565314 -0.45256716 1.0512832
2.6257563 -0.48850682 1.0134887
2.5636294 -0.35023007 1.0476089
2.626785 -0.34716684 1.0188785
2.5657547 -0.24804291 1.0436866
2.6279275 -0.25399986 1.0151914
2.5650704 -0.1461532 1.0402355
2.6288362 -0.12674457 1.0119898
2.5672488 -0.060786068 1.044948
2.6197426 -0.049782913 1.0163291
2.559967 0.050036684 1.0408058
2.6152971 0.011454199 1.0188099
2.569422 0.14649828 1.0419794
2.6308947 0.16152173 1.0135281
2.5703607 0.24845043 1.0455481
2.6314738 0.24272831 1.0161642
2.5629246 0.35015905 1.047381
2.6325612 0.39492425 1.0235649
2.5635269 0.44220367 1.0533146
2.6311281 0.46176818 1.0182066
2.564636 0.54899061 1.0428134
2.62608 0.52435946 1.0161598
2.5693884 0.65515524 1.0465146
2.6346519 0.67172575 1.0180664
2.5659237 0.74757421 1.0523592
2.6340096 0.75333077 1.0203509
2.5680997 0.85033196 1.0402627
2.6205838 0.80435658 1.0264119
2.5691757 0.95173973 1.0535569
2.6367598 0.95061737 1.0214869
2.5675156 1.0601087 1.045741
2.6275387 1.0339255 1.0177612
2.5688889 1.1486156 1.0537289
2.6385107 1.1796702 1.0245212
2.5715337 1.2505003 1.0516037
2.6296592 1.2455764 1.017059
2.5697899 1.3436733 1.0472114
2.6235411 1.3136898 1.0110682
