# .PCD v0.7 - Point Cloud Data file format
VERSION 0.7
FIELDS x y z
SIZE 4 4 4
TYPE F F F
COUNT 1 1 1
WIDTH 1478
HEIGHT 1
VIEWPOINT 0 0 0 1 0 0 0
POINTS 1478
DATA ascii
3.0617948 -0.62531018 -0.13267958
3.3968558 -0.60123152 -0.13125032
3.4064806 -0.60293502 -0.10112137
3.0430536 -0.59376538 -0.13163751
3.4122615 -0.57318044 -0.11637016
3.4691324 -0.55153465 -0.11812344
3.4738255 -0.52112675 -0.11812183
3.47892 -0.47524491 -0.11807363
3.4839993 -0.42938864 -0.11804317
3.4796045 -0.38250756 -0.13318866
3.4863179 -0.3215448 -0.13320956
2.8886416 -0.2154386 -0.1102116
2.9344411 -0.18014739 -0.11185803
2.6045136 -0.079880081 -0.12213221
2.6032786 -0.034205571 -0.12202746
2.6094582 0 -0.12230539
2.9125276 0.025511796 -0.1365155
2.9254203 0.06408608 -0.13714877
2.9920831 0.065538011 -0.11386935
2.9327326 0.11566035 -0.13756543
2.9978933 0.11823483 -0.11415181
2.9289474 0.16693133 -0.13750395
3.0037642 0.17121172 -0.11447199
2.9311061 0.21864265 -0.13776404
3.0096989 0.22450522 -0.11483044
3.0157013 0.27815267 -0.1152277
3.0201828 0.33201021 -0.11560344
2.9844103 0.38104513 -0.11447191
2.952796 0.41655245 -0.11345858
3.5793879 0.53696269 -0.13771026
3.5829029 0.56962234 -0.13803217
3.5879285 0.61887634 -0.13852853
3.5412478 0.69097376 -0.13727614
3.5517972 0.67690361 -0.12162538
3.3421645 0.7437861 -0.1151779
3.4369822 0.73335224 -0.13371184
3.5347157 0.7218948 -0.12134973
3.1951332 0.77004606 -0.12504719
3.2522225 0.75372648 -0.12701821
3.0374737 0.83134103 -0.14760387
3.0899777 0.83118308 -0.12174469
3.1704483 0.82311869 -0.12462637
3.2234221 0.80680209 -0.12642606
3.0686684 0.87373275 -0.13077126
3.0392959 0.90382308 -0.1486173
3.0640681 0.91118979 -0.12162545
3.3322275 0.99093473 -0.10161889
3.315238 1.0334772 -0.11681337
3.309967 1.0797516 -0.11711986
3.3269958 1.1176424 -0.11806856
3.3557546 1.1601112 -0.10378717
3.0874069 -0.97731358 -0.06612315
3.1150477 -0.98606318 -0.095508009
3.0826979 -0.93146896 -0.079984955
3.0895646 -0.8796379 -0.075056404
3.1122305 -0.86647159 -0.094432473
3.1178131 -0.83867061 -0.080156796
3.1591659 -0.82018948 -0.081024744
2.9290931 -0.7059288 -0.074741736
2.930975 -0.67029834 -0.079031669
2.953254 -0.65723556 -0.061776154
2.9721539 -0.63417137 -0.075443543
3.0685792 -0.62669575 -0.077737004
3.4249535 -0.60620469 -0.071019292
3.0467422 -0.5944851 -0.090737797
3.0511665 -0.59534836 -0.063475043
3.4377189 -0.57745671 -0.071176372
2.8593638 -0.4289481 -0.059037145
2.9011059 -0.40926051 -0.059822679
2.943377 -0.37585405 -0.060587861
2.8705273 -0.32828242 -0.084454343
2.9365168 -0.32286161 -0.073282905
2.9502165 -0.31124222 -0.06057322
2.9546189 -0.27250615 -0.073660396
2.9601424 -0.22079605 -0.073690355
2.9643035 -0.18198067 -0.073727354
2.5631518 -0.12359601 -0.075006627
2.4660943 -0.06481728 -0.050371274
2.533669 -0.066593364 -0.074086405
2.5565705 -0.084018841 -0.080366641
2.4616938 -0.032307334 -0.050268844
2.5245829 -0.033122845 -0.073802292
2.5512075 -0.033521388 -0.097076103
2.5606368 0.0112155 -0.074835889
2.9912059 0.065518796 -0.07427521
2.997014 0.11820015 -0.074459434
3.0028801 0.17116132 -0.074668221
3.008812 0.22443902 -0.074901998
3.014812 0.27807066 -0.075161114
3.0208859 0.33209461 -0.075446025
3.0254898 0.37287921 -0.075676069
3.0301456 0.41395271 -0.075922787
3.0364251 0.46913278 -0.076274365
2.976747 0.52687371 -0.088364735
3.0318315 0.51842946 -0.071771361
2.9676936 0.55212229 -0.088236161
3.0468564 0.58067656 -0.063332513
2.9766879 0.63513881 -0.062147584
3.0070467 0.61412895 -0.062666707
3.1974192 0.77059698 -0.096138716
3.2011929 0.77150643 -0.067234963
3.2520289 0.7536816 -0.08287023
3.0919893 0.83172417 -0.093593657
3.1059067 0.83546788 -0.065672182
3.1713293 0.82334745 -0.081342012
3.2294641 0.80831432 -0.082630873
3.0937619 0.87593931 -0.093988433
3.1137543 0.88166046 -0.066078275
3.3245087 0.98863935 -0.070819341
3.2960114 1.043347 -0.070590846
3.3046813 1.0143321 -0.07058353
3.300288 1.0765941 -0.070881687
3.304332 1.1100289 -0.071174636
3.347173 1.1571444 -0.072312973
3.1400795 -0.96380949 -0.023667881
3.0806661 -0.91612566 -0.037312768
3.1309822 -0.91116172 -0.018739935
3.1493802 -0.87681437 -0.0235564
3.1815648 -0.8558194 -0.023739643
3.1978354 -0.83022898 -0.038355902
2.9425304 -0.68195307 -0.021756805
2.9530931 -0.65719974 -0.021800349
2.9915211 -0.63830376 -0.035511702
3.0781512 -0.62865061 -0.036473304
2.8424413 -0.58051157 -0.0081295967
2.8768432 -0.56133407 -0.0082136104
3.0572004 -0.59652567 -0.036161754
2.8509119 -0.50460136 -0.033611964
2.9259994 -0.53112233 -0.0083333943
2.9241302 -0.477997 -0.021318179
2.9371068 -0.4274689 -0.021388734
2.9425483 -0.37574822 -0.021377146
2.94801 -0.32407042 -0.0213723
2.9534943 -0.27240241 -0.021374188
2.9590096 -0.22071156 -0.021382846
2.8876901 -0.15190141 -0.0081031658
2.9641888 -0.17328493 -0.02575703
2.56494 -0.1124048 -0.018506203
2.3616056 -0.072422959 -0.0066209421
2.4329829 -0.063947 -0.028255355
2.5776203 -0.090347588 -0.029943136
2.3621407 -0.031037159 -0.0066199014
2.4303508 -0.031888682 -0.02821774
2.3641663 0 -0.0066249426
2.5707972 0.01498834 -0.022314817
2.9903295 0.065499596 -0.03472475
2.996134 0.11816543 -0.034810852
3.0019977 0.17111102 -0.034908455
3.0079269 0.22437304 -0.03501774
3.0889626 0.2440147 -0.008682956
3.0139256 0.27798888 -0.035138883
3.0933042 0.28530991 -0.008705033
2.9486744 0.3372196 -0.0083167292
3.0173934 0.32725787 -0.026343949
2.9444366 0.36288974 -0.008313423
3.0246012 0.37276968 -0.035379641
3.0289576 0.4137904 -0.02203045
3.0352345 0.46894881 -0.022132464
3.041604 0.52464312 -0.022242516
3.0480697 0.58091736 -0.022360798
3.0529819 0.62351036 -0.022454754
3.0135293 0.69840759 -0.035912696
3.0572357 0.66635519 -0.022545453
2.9859183 0.71962404 -0.035657402
3.0643973 0.72437513 -0.0088238902
3.0264759 0.77152336 -0.0087522063
3.1703699 0.8230983 -0.038026471
3.2394447 0.81081247 -0.038768306
3.1129289 0.86666608 -0.023274541
3.1748002 0.85399973 -0.038167868
3.1403966 0.90402567 -0.037938856
3.3657784 1.0169609 -0.025331179
3.2966034 1.0753921 -0.040256623
3.3459606 1.0591583 -0.025279084
3.366004 1.0980315 -0.009921507
3.002948 -0.95057821 0.046655823
2.9762712 -0.92777425 0.032485534
2.889262 -0.87305492 0.018123643
2.9667654 -0.868182 0.045787938
2.8664284 -0.82515848 0.017910587
2.9456494 -0.82009393 0.045291178
2.8434246 -0.76486194 0.017680405
2.8529742 -0.79429239 0.017782364
2.9258566 -0.77335453 0.044827349
2.8400652 -0.72408462 0.017599013
2.9112549 -0.71515691 0.044404775
2.8764522 -0.67986929 0.017747868
2.909873 -0.67438447 0.044244222
2.9141836 -0.63516498 0.031043166
2.9197311 -0.58299321 0.030988717
2.9251897 -0.53097534 0.030943193
2.9305971 -0.47908819 0.03090686
2.9360123 -0.42730957 0.030880269
2.8741257 -0.37980965 0.042942442
2.9417191 -0.37564236 0.01780731
4.2748337 -0.3753978 0.02576725
2.9471745 -0.3239786 0.017803242
4.2810173 -0.3193194 0.025777254
2.8736889 -0.27774045 0.017335624
4.2872057 -0.26319456 0.02579122
2.317637 -0.11176026 0.024122838
2.3111649 -0.070876084 0.024034005
2.3116908 -0.030374277 0.024030229
2.3171489 0.020331843 0.024088889
4.3584356 0.38273937 0.026271176
4.3627281 0.42165527 0.026318302
2.9778409 0.48673344 0.018118057
4.3691959 0.48031795 0.02639338
3.0423181 0.53847957 0.0185517
4.3757014 0.53928727 0.026472928
2.9900517 0.58342355 0.045124684
3.0471802 0.58074784 0.01862647
4.3800592 0.57881558 0.026528949
3.0517969 0.62326837 0.032418706
4.3844376 0.6185149 0.026587263
3.0567784 0.66625875 0.032562166
4.3888345 0.65839201 0.026647875
3.0635087 0.72416508 0.032763992
3.0702982 0.78280473 0.032978185
3.0753899 0.827259 0.033146366
3.0758016 0.870866 0.033294406
3.0348659 0.91697919 0.019036856
3.0909925 0.91919655 0.047766201
3.0401902 0.97710115 0.019174825
3.1184402 0.97221249 0.048384398
3.0767131 1.0335646 0.019488841
3.1601708 1.0308862 0.04923695
3.1080759 1.0744866 0.019746363
3.1901121 1.0716588 0.049847789
3.0028293 -0.95054066 0.07440275
2.988184 -0.91718704 0.073837981
2.9642427 -0.86274219 0.081975885
2.9454775 -0.82004613 0.085698828
2.9256725 -0.77330589 0.084820777
2.911057 -0.71510839 0.084020719
2.9092336 -0.67423624 0.083703689
2.9130652 -0.63492119 0.08356712
2.918627 -0.58277273 0.083420984
2.8694799 -0.53385025 0.094671428
2.9243746 -0.5308274 0.070209928
4.2581897 -0.52480441 0.063550688
2.8540702 -0.45374995 0.068266392
2.9284353 -0.49190894 0.070145495
4.2643671 -0.46877527 0.063546076
4.2705455 -0.41274589 0.06355124
4.2097387 -0.36968145 0.099826351
4.2746668 -0.37538317 0.063561194
4.2138004 -0.332872 0.099849693
4.2808509 -0.31930697 0.063585877
4.2178612 -0.29604229 0.099880643
4.2870398 -0.26318437 0.063620344
2.324738 -0.11003862 0.071477704
2.3184347 -0.071099035 0.065036729
2.318958 -0.030469764 0.065026455
2.3244765 0.020377841 0.069621943
4.353992 0.34394655 0.064693421
4.3582683 0.3827247 0.064804286
4.3625588 0.42163891 0.064920515
4.3690286 0.4802995 0.065105736
4.3755312 0.53926629 0.065301932
4.3798895 0.57879317 0.065440126
4.3842669 0.61849076 0.065583952
3.001399 0.66795009 0.072634421
4.3908715 0.67839664 0.065811098
2.9879022 0.74785292 0.099905118
3.0626194 0.7239548 0.074340567
3.0693831 0.78257143 0.074826077
3.0744581 0.82700843 0.075207353
3.0799718 0.87207091 0.075616896
3.0908735 0.91916114 0.076173566
3.1183116 0.97217244 0.077159196
3.1600471 1.0308459 0.078518935
3.1899886 1.0716174 0.079493091
3.0027125 -0.95050365 0.10215909
2.9759188 -0.9276638 0.11481633
2.9226291 -0.8831085 0.1259574
2.9736428 -0.88429922 0.10062753
2.9130974 -0.8248235 0.12490463
2.9043429 -0.76764774 0.12393354
2.9015532 -0.72624034 0.12339522
2.8817844 -0.68568158 0.1309271
2.8343141 -0.63076597 0.11978931
2.9646449 -0.63256913 0.12505862
3.1678782 -0.64697558 0.13338751
3.2464588 -0.60398495 0.13622978
4.2539048 -0.56214452 0.10136057
4.2580237 -0.52478397 0.10134529
4.264204 -0.46875733 0.10133801
4.2703824 -0.4127301 0.10134625
2.3574891 -0.10331357 0.12861329
2.5338302 -0.022194659 0.12689862
2.3590903 0.020664055 0.12858218
2.5288067 0 0.12664218
4.3538227 0.34393317 0.10316765
4.358098 0.38270977 0.10334443
4.3623896 0.42162254 0.1035298
4.3688588 0.48028088 0.10382517
4.3753605 0.53924525 0.10413803
4.3797188 0.57877058 0.10435841
4.3196735 0.62870741 0.14159042
4.3840961 0.61846673 0.1045878
4.3261886 0.68779248 0.14208646
4.3713636 0.67529595 0.10448749
3.3411038 0.74355006 0.1261154
3.4358225 0.73310483 0.12944336
3.0704608 0.79715967 0.10289512
3.2843828 0.76117986 0.12426083
3.3083532 0.7973327 0.11038213
3.0161371 0.8397184 0.12916216
3.0824232 0.82915103 0.11764929
3.1530039 0.81858975 0.13438852
3.3369651 0.81973612 0.14175972
3.0032864 0.89311451 0.12926209
3.0794971 0.87193722 0.10381422
3.1213138 0.89853227 0.13399813
3.0105374 0.92404819 0.12991756
3.0907538 0.91912556 0.10459054
3.0295 0.97366047 0.1312786
3.1181791 0.97213113 0.10594346
3.159924 1.0308057 0.10781083
3.1898663 1.0715762 0.10914847
3.2213182 -0.7317214 0.19461292
2.9731853 -0.67535913 0.15269105
3.1946807 -0.65244943 0.1632915
3.2265851 -0.6737088 0.19418824
2.9712379 -0.63397592 0.15214856
3.1742191 -0.61935854 0.17631251
3.2462883 -0.60395324 0.17994598
0.093563057 -0.14555377 0.17187263
0.12956817 -0.12873335 0.17222577
0.17314532 -0.12338233 0.17244259
0.22326444 -0.12340973 0.17262778
0.27373108 -0.12358886 0.17282549
0.32390851 -0.12350778 0.17302932
0.35207918 -0.12706162 0.17315067
2.3717165 -0.10393706 0.17137338
0.14601269 -0.093470111 0.17190249
0.1749154 -0.075638995 0.17230083
0.2231804 -0.074153759 0.17254134
0.27365226 -0.074477613 0.17275219
0.32390693 -0.074570529 0.17296657
0.35161182 -0.084740534 0.17309439
2.5389183 -0.088991053 0.19461955
0.18237728 -0.026256697 0.17223656
0.22320038 -0.024901405 0.17249542
0.27332926 -0.025611624 0.17271218
0.32241204 -0.025682179 0.1729271
0.3519454 -0.032460213 0.17305873
2.5262256 -0.044259492 0.19355746
0.1824111 0.025508884 0.1722364
0.22323216 0.023873728 0.17249508
0.2734305 0.024411084 0.17271243
0.32252032 0.024266625 0.17292719
0.35182571 0.034003761 0.17305873
2.373323 0.020788724 0.17133161
2.5400829 0 0.19458932
2.5657566 0 0.17384239
0.14601274 0.093470111 0.17190255
0.17491539 0.075639002 0.17230093
0.22318046 0.074153773 0.17254131
0.27365217 0.074477613 0.17275225
0.32390699 0.074570507 0.17296661
0.35124743 0.086282104 0.17309439
0.093426079 0.14584087 0.17190257
0.12943813 0.12934704 0.17223012
0.17318058 0.12384343 0.17244388
0.22327282 0.1239783 0.172629
0.27351001 0.12425885 0.17282583
0.3238031 0.12446713 0.17303057
0.35152498 0.12860441 0.17315069
0.082551301 0.15032744 0.17150229
0.17113134 0.15008372 0.17250775
0.21780379 0.15019356 0.17266692
0.28202784 0.15037183 0.17290927
0.33339366 0.15079452 0.17311293
3.3560188 0.74686933 0.17218047
3.4356179 0.73306113 0.17592812
3.3210711 0.76968265 0.17072684
3.0402207 0.84642345 0.15804428
3.0908902 0.83142853 0.16029356
3.3687394 0.8275398 0.17372325
3.1211901 0.89849669 0.16265632
3.3749962 0.8762238 0.17462257
3.0484648 0.90654963 0.15927404
2.5945313 -1.4744821 0.22861511
2.5948486 -1.4299256 0.22697148
2.5952666 -1.3714445 0.22487175
2.5955234 -1.3282213 0.23628193
2.5958261 -1.2856543 0.23475477
2.5962262 -1.2296948 0.23280682
2.5966196 -1.1746397 0.23096122
1.9771509 -1.100824 0.2336331
2.5970054 -1.1204333 0.22921427
1.9774296 -1.0672157 0.22200111
2.5973876 -1.0670254 0.22756307
1.9779198 -1.0209548 0.22584336
2.5877812 -1.0147874 0.22110225
1.9826174 -0.98193812 0.22838826
2.5782554 -0.97646576 0.22744584
1.9783564 -0.92649156 0.2352763
2.5897894 -0.93358982 0.22305813
1.9787283 -0.87432522 0.23298201
2.4762297 -0.89256573 0.24834891
2.5973587 -0.88522404 0.2223741
1.9790934 -0.82320476 0.23085177
2.5990415 -0.83528006 0.22123761
1.9794517 -0.77292895 0.22885916
2.5993977 -0.78542966 0.22006278
3.2628531 -0.75619018 0.22693349
1.9864964 -0.73911065 0.2314169
2.5997036 -0.74017715 0.22304095
2.6039569 -0.71269059 0.20682114
3.2657266 -0.72677517 0.22668189
2.5999601 -0.69937164 0.23012333
2.6081388 -0.66495866 0.21809024
3.2694559 -0.6826601 0.22630093
4.1402149 -0.65822572 0.24697468
2.6139617 -0.61788601 0.21761364
3.2283912 -0.62992871 0.22286415
3.2774458 -0.60974991 0.22587314
4.140481 -0.62113518 0.24665654
2.6193786 -0.57091016 0.21717566
4.1407437 -0.5841369 0.24635793
2.6243908 -0.52402169 0.21677577
4.141139 -0.52881002 0.24594924
2.6015301 -0.47223029 0.23773068
2.6564093 -0.48218277 0.2068281
4.1415329 -0.47363856 0.24557939
2.6018639 -0.42535257 0.2370438
2.6663101 -0.42389917 0.20682986
4.1419253 -0.41863942 0.24525774
2.6021976 -0.37873095 0.23643339
2.6750183 -0.36542496 0.20683163
4.1423163 -0.36376071 0.24497433
2.6025293 -0.33233458 0.2358983
2.6810277 -0.31851193 0.20683306
4.1425772 -0.32724568 0.24481085
2.6029406 -0.27461854 0.23533781
2.6862144 -0.27150053 0.2068345
4.1429677 -0.27256212 0.24460351
2.6033516 -0.21713406 0.23488483
4.1433582 -0.21795343 0.24443406
2.6036782 -0.17129365 0.23460753
2.3898005 -0.10472957 0.22574921
2.6039243 -0.13697445 0.23444504
4.1440077 -0.12708402 0.24425194
2.5363069 -0.07778047 0.21688738
2.5585802 -0.078466229 0.24151792
4.1443954 -0.072609834 0.24419513
2.3272977 -0.040774275 0.2403135
2.5283527 -0.033183698 0.21612424
2.5578983 -0.033609368 0.2413609
4.1446552 -0.036304411 0.24418235
2.3914163 0.020947209 0.22569387
2.5373209 0 0.21687007
2.5588894 0 0.24143128
2.605227 0.045643598 0.23427442
4.1449146 0 0.24418826
2.6054718 0.079902552 0.23437285
4.1454325 0.072628006 0.24425623
2.6057987 0.12563457 0.23456424
4.1458225 0.12714081 0.2443589
2.6061251 0.17145535 0.23482801
4.1462111 0.18170175 0.24449909
2.6064527 0.21739344 0.23516463
2.6897786 0.23620498 0.20685013
4.146472 0.21811722 0.24461775
2.6068647 0.2750344 0.23569258
2.6864314 0.27152252 0.20685121
4.1468616 0.27281946 0.24483344
2.6072781 0.33294171 0.23632874
2.6812825 0.31854224 0.20685272
4.147253 0.32761508 0.24508718
2.6076112 0.37951958 0.23692526
2.6753097 0.36546478 0.20685415
4.1475129 0.36421707 0.24528167
2.6079445 0.42634737 0.23759779
2.6666467 0.42395282 0.20685597
4.1479063 0.41924512 0.24561191
2.608269 0.46952119 0.23435764
2.6567907 0.48225203 0.2068578
4.1482997 0.47441247 0.24598067
2.6209946 0.52736562 0.22053462
2.6502643 0.5171237 0.20685886
4.1486955 0.5297761 0.24639805
2.6236577 0.57184315 0.21754795
4.1490922 0.58531463 0.24685463
5.1929097 0.59387732 0.21562828
1.9895636 0.6490199 0.23470505
2.6185997 0.61898285 0.2180188
4.1493578 0.62246686 0.24718535
1.9898112 0.67816716 0.22640342
2.6131401 0.6662342 0.21852902
4.149622 0.65972126 0.24753582
1.9901619 0.72733068 0.22820568
2.6101034 0.71438801 0.21930379
3.3603864 0.74784136 0.20281272
3.4404345 0.73408884 0.22282299
1.9905188 0.77725112 0.23013873
2.511291 0.794945 0.24852806
2.6104567 0.76388395 0.22042412
3.3949313 0.77118671 0.22045666
1.9908811 0.82810992 0.23222683
2.4747427 0.80729115 0.24560148
2.610815 0.81390405 0.22162445
3.4063582 0.82095253 0.20642368
3.457684 0.81734526 0.2407335
1.9912509 0.87985921 0.23445648
2.5938542 0.89671612 0.23457652
2.6083009 0.86352599 0.22264752
3.4108486 0.85371375 0.20714103
1.9915521 0.92202306 0.23635772
2.5859082 0.91940409 0.23457724
2.6115932 0.91569293 0.21201122
1.9928976 0.97622287 0.23475835
2.0052738 0.96054482 0.20978339
2.6119108 0.96750939 0.22572573
2.6122856 1.0200365 0.22726771
2.6126659 1.0733027 0.22890167
2.6130521 1.1273574 0.23063061
2.6134436 1.1822515 0.2324577
2.6137409 1.223976 0.23389123
2.6140437 1.2662866 0.23539019
2.6144354 1.3187207 0.23296237
2.6148157 1.367126 0.2260413
2.5943751 -1.4743934 0.26829976
2.5946758 -1.4347681 0.2622101
2.5951624 -1.3713894 0.25088263
2.5960727 -1.2296221 0.2710281
2.5964661 -1.1745701 0.26887947
1.9769955 -1.1007375 0.2739861
2.596853 -1.1203675 0.26684585
1.9772354 -1.067111 0.27205685
2.5971377 -1.0802171 0.26539025
1.9775196 -1.0251402 0.27367964
1.9778217 -0.97957063 0.27710733
1.9782006 -0.9264186 0.27425823
1.9785728 -0.87425649 0.27158386
2.4121089 -0.85761076 0.26430476
2.4640572 -0.85184431 0.26916906
2.5410588 -0.87846434 0.25367141
2.5687025 -0.86290783 0.25566667
1.9788988 -0.82312387 0.2786963
2.2863817 -0.81290919 0.29380769
2.3207641 -0.83661568 0.26567221
2.4132245 -0.83427101 0.28636384
2.4717762 -0.8303473 0.29243755
2.5271063 -0.83661819 0.28670886
2.5689175 -0.82559896 0.26658696
1.9792576 -0.77285308 0.27629077
2.5991931 -0.78536791 0.26825967
1.9808706 -0.73375088 0.27467826
2.5995445 -0.73603266 0.26692408
2.5998485 -0.69122028 0.26976204
2.6001129 -0.6588766 0.26102185
4.1400533 -0.65820003 0.28403148
2.6003599 -0.61467689 0.27588329
4.1403193 -0.62111092 0.2836656
2.600702 -0.566845 0.27482376
4.1405816 -0.58411402 0.28332219
2.6010411 -0.51936442 0.27385598
4.1409769 -0.5287894 0.2828522
2.6013265 -0.4721933 0.28473619
4.1413713 -0.47362009 0.28242686
2.6016614 -0.42531946 0.28391361
4.1417637 -0.41862309 0.28205693
2.6019936 -0.37870124 0.28318238
4.1421561 -0.36374661 0.2817311
2.6023254 -0.3323085 0.28254145
4.1424174 -0.32723308 0.28154314
2.6027369 -0.27459702 0.28187019
4.142807 -0.27255157 0.28130466
2.6031475 -0.21711703 0.28132761
4.1431985 -0.21794501 0.28110978
2.6034739 -0.17128024 0.28099546
2.4082248 -0.10553699 0.28112113
2.6037199 -0.1369637 0.28080082
4.1438456 -0.12707905 0.28090021
2.2886398 -0.060153175 0.29768032
2.3109641 -0.060739927 0.26954037
2.6041172 -0.083665453 0.27673489
4.1442327 -0.072606996 0.28083485
2.2852237 -0.033324502 0.29035649
2.3165808 -0.0270089 0.26670811
2.6045854 -0.022814428 0.26891488
4.1444931 -0.036302991 0.28082016
2.4098458 0.021108638 0.2810514
2.6048608 0.022820015 0.28055751
2.6052682 0.079896308 0.28071445
4.1452703 0.072625168 0.28090516
2.6055944 0.12562472 0.28094363
4.1456594 0.12713581 0.2810232
2.6059217 0.17144199 0.28125969
4.1460485 0.18169461 0.28118441
2.6062491 0.21737647 0.28166282
4.1463099 0.21810868 0.2813209
2.6066599 0.27501288 0.28229508
4.146699 0.27280873 0.28156894
2.6070743 0.33291563 0.28305706
4.1470914 0.3276023 0.2818608
2.6074064 0.37948978 0.28377146
4.1473513 0.36420283 0.28208447
2.6077409 0.42631412 0.28457707
4.1477451 0.41922879 0.28246427
2.608124 0.47578782 0.27844349
4.14814 0.47439417 0.28288847
2.6084669 0.52084798 0.27463785
4.1485348 0.52975559 0.28336847
2.6088073 0.5686124 0.2756803
4.148931 0.58529186 0.2838935
1.9894069 0.64896876 0.27209923
2.0054362 0.6348176 0.27351859
2.6092024 0.61676794 0.26488608
4.1491976 0.62244278 0.28427389
1.9896156 0.67810053 0.27332604
2.6095486 0.66532546 0.26606378
4.1494622 0.65969592 0.284677
1.9899665 0.72725934 0.27550185
2.32827 0.72577691 0.28442878
2.4145522 0.74111766 0.28326491
2.4746773 0.73591727 0.28955123
2.5392978 0.73098737 0.29635161
2.5800264 0.73050708 0.26491994
2.6098096 0.70202112 0.26700494
1.9903229 0.77717465 0.27783546
2.3222878 0.75755858 0.25219387
2.4181809 0.76547116 0.26186937
2.4708104 0.75838548 0.26683912
2.5274849 0.75162113 0.27223831
2.5678871 0.77584946 0.25309956
1.9906772 0.82546532 0.27780333
1.9910944 0.87979007 0.27330261
1.9913956 0.92195064 0.27551889
1.9917784 0.97568363 0.27846813
2.6118493 0.9804945 0.2632201
1.9921293 1.0194432 0.27096501
2.6121323 1.0199766 0.26457971
2.6125131 1.07324 0.26648197
2.6128969 1.1272905 0.26849455
2.6132898 1.1821818 0.27062172
2.6135871 1.223904 0.27229062
2.6143663 1.3282751 0.2679871
2.6146607 1.3670449 0.26527941
2.5941725 -1.4742782 0.32134962
1.9768 -1.1006287 0.32463893
1.9770414 -1.0670061 0.32235324
1.9773471 -1.0206602 0.32528713
1.9776258 -0.97947359 0.32659116
1.9780051 -0.92632705 0.32323334
1.9783777 -0.87417012 0.32008144
1.9787035 -0.82304263 0.32678846
2.2616038 -0.80409962 0.31209573
2.3204298 -0.80219114 0.31923163
2.3780601 -0.82211435 0.30465162
2.4291124 -0.81601518 0.3216784
2.4879713 -0.81160653 0.34027264
2.5046418 -0.81704462 0.3189851
2.5667727 -0.81250757 0.32597694
1.9790624 -0.77277696 0.32396787
2.2459264 -0.79852557 0.33130437
2.3074899 -0.79771763 0.33934203
2.5989892 -0.78530633 0.31661713
1.9806083 -0.73365402 0.32206699
2.5993419 -0.73597527 0.31504092
2.5997252 -0.6749773 0.32521233
2.5999999 -0.65076345 0.30058929
2.5999675 -0.6266076 0.34773684
2.6001503 -0.6106196 0.33134767
2.6004467 -0.56678933 0.33415666
2.6007853 -0.51931334 0.33297992
2.6011214 -0.47215611 0.33191288
2.6014566 -0.42528597 0.33095407
2.601789 -0.37867144 0.33010164
4.141993 -0.36373234 0.31852874
2.6021206 -0.33228236 0.32935458
4.1422553 -0.32722026 0.31831625
2.6025321 -0.27457541 0.32857212
4.1426449 -0.27254087 0.31804663
2.6029422 -0.21709991 0.32793957
4.1430359 -0.21793646 0.3178263
2.6032696 -0.17126676 0.3275525
2.4269545 -0.11348826 0.33045557
2.6035151 -0.13695294 0.32732558
4.1438146 -0.10891342 0.31755677
2.2799911 -0.059925862 0.3272481
2.6038408 -0.091266647 0.3271153
2.2774029 -0.029872771 0.32679522
4.1443319 -0.036301579 0.31749898
2.428652 0.028393829 0.33034775
2.604655 0.022818215 0.32704183
2.6050625 0.079889998 0.32722482
4.1451092 0.072622344 0.31759506
2.6053884 0.12561479 0.32749194
4.1454992 0.1271309 0.31772852
2.6057162 0.17142844 0.32786033
4.1458888 0.18168761 0.31791088
2.6060436 0.21735933 0.32833031
4.1461487 0.21810022 0.31806514
2.6064556 0.27499127 0.32906747
4.1465387 0.27279818 0.31834558
2.6068692 0.33288947 0.32995561
4.1469288 0.32758945 0.31867543
2.6072013 0.37945995 0.33078837
2.6075356 0.42628053 0.33172745
2.6078718 0.47338217 0.33277428
2.6082094 0.52079654 0.33393043
2.608551 0.56855655 0.3351981
1.9891714 0.64889193 0.32849133
2.0049827 0.63467395 0.33017167
2.6089461 0.61670738 0.32461128
1.9893795 0.67802006 0.3299723
2.6092958 0.66282707 0.3211624
1.9897689 0.72718698 0.32304254
2.2954605 0.70456392 0.3337363
2.3116765 0.7095412 0.31441286
2.4184883 0.71920782 0.32797942
2.4858613 0.7156046 0.33634701
2.5057693 0.72133553 0.31571481
2.5741127 0.71665496 0.3234894
2.6096056 0.70196629 0.31513631
1.9901258 0.77709764 0.32577893
1.9905268 0.83088809 0.32474157
1.9908971 0.87970287 0.32210702
1.9911989 0.92185956 0.3247191
1.9915824 0.97558761 0.32819512
1.9919344 1.0193435 0.3210597
2.6142993 1.3378296 0.30319548
2.6144552 1.3669374 0.31773192
2.5939703 -1.4741631 0.37459296
1.9766053 -1.1005201 0.37562394
1.9768444 -1.0668999 0.37297893
1.9771286 -1.0249376 0.37378058
1.9774296 -0.97937638 0.37636784
1.9778093 -0.92623538 0.3724983
1.9781419 -0.87406611 0.37867853
1.9785066 -0.82296067 0.3752161
2.2606263 -0.80375201 0.39833936
2.4138551 -0.81088972 0.36538365
2.4920049 -0.81292236 0.37614024
2.5672867 -0.81267035 0.38638484
1.9788655 -0.77270001 0.37197748
2.2410946 -0.79680765 0.36269552
2.3092296 -0.7983191 0.3725903
2.5987842 -0.78524446 0.36516607
1.9804128 -0.73358172 0.36979523
2.599123 -0.73345429 0.37052488
2.5994661 -0.67838961 0.38030759
2.5998542 -0.61856502 0.3874512
2.6000376 -0.60257781 0.37095702
2.6002414 -0.56674457 0.3818554
2.60058 -0.51927239 0.38051066
2.6009169 -0.472119 0.37929147
2.6012506 -0.42525232 0.37819558
2.6015844 -0.37864169 0.3772217
2.6019154 -0.33225614 0.3763679
2.6023266 -0.27455375 0.37547371
2.6027369 -0.2170828 0.37475088
2.603065 -0.17125332 0.37430868
2.4198346 -0.11668009 0.3694112
2.2849295 -0.060055658 0.36918253
2.4332685 -0.085287951 0.37126255
2.6736288 -0.093712755 0.37183547
2.2822118 -0.029936351 0.36865079
2.426048 0.021224201 0.36995265
2.6742985 0 0.37170038
2.6048574 0.07988371 0.37393415
2.6051841 0.12560494 0.3742395
2.6055107 0.17141494 0.37466037
2.6058381 0.21734218 0.37519741
2.6062503 0.27496961 0.37603983
2.6066623 0.33286303 0.37705451
2.6069961 0.37943006 0.3780064
2.6073296 0.42624685 0.37907943
2.6076658 0.4733448 0.38027567
2.6080041 0.52075553 0.38159701
2.608345 0.56851166 0.38304549
1.9889733 0.64882731 0.37581751
2.0047789 0.63460934 0.37773913
2.6086893 0.61664671 0.38462365
1.9891815 0.67795253 0.37751186
2.6090837 0.66764086 0.37917
1.9895719 0.72711498 0.37091529
2.2892373 0.70265377 0.35435474
2.4168603 0.71872377 0.38453513
2.4852567 0.71543062 0.37110135
2.5719838 0.71606231 0.38310814
2.609349 0.70189732 0.37558413
1.9899281 0.77702045 0.37405705
1.9902903 0.82786411 0.37745094
1.9907 0.87961578 0.37120038
1.9910014 0.92176807 0.37421048
1.9913845 0.97549063 0.37821618
1.9917368 1.0192423 0.37148228
2.6142507 1.3668306 0.37037581
2.5937648 -1.4740465 0.42806363
1.9764068 -1.1004097 0.42694822
1.9766471 -1.0667934 0.42394203
1.9769533 -1.0204568 0.42600018
1.9772319 -0.97927839 0.42653432
1.9776109 -0.92614257 0.42214894
1.9779432 -0.87397826 0.4278968
2.5395577 -0.85311717 0.44478723
1.9783086 -0.82287836 0.42398456
2.3060298 -0.81989497 0.42852089
2.4438968 -0.82098168 0.4047358
2.5458558 -0.83048916 0.42040044
2.5682213 -0.8212387 0.43954983
1.978657 -0.7706213 0.42601472
2.5985785 -0.78518218 0.41393787
1.9801773 -0.73349428 0.42753649
2.5988412 -0.73829246 0.42902717
2.5992634 -0.67486215 0.43373069
2.5996938 -0.61451948 0.43144542
2.5998967 -0.57859719 0.44221023
2.6000805 -0.56273359 0.4256475
2.600374 -0.5192312 0.42827481
2.6007106 -0.47208151 0.42690253
2.6010447 -0.42521864 0.42566916
2.6013775 -0.37861159 0.42457289
2.6017087 -0.33222976 0.42361188
2.6021211 -0.27453199 0.4226056
2.6025307 -0.2170656 0.42179203
2.6028578 -0.17123967 0.42129412
2.4368396 -0.11751011 0.40505254
2.3263416 -0.061144106 0.4180932
2.6033766 -0.091250367 0.43249348
2.2952907 -0.04021351 0.40194154
2.3229961 -0.030523591 0.41733071
2.4384909 0.03206351 0.40489158
2.6040289 0 0.43233633
2.6046505 0.079877362 0.42087266
2.6049767 0.12559491 0.42121628
2.6053042 0.17140137 0.42169011
2.6056314 0.21732494 0.42229456
2.6060436 0.27494779 0.42324266
2.606456 0.33283672 0.42438489
2.6067891 0.37939996 0.42545614
2.6071229 0.42621303 0.42666388
2.6074595 0.4733074 0.4280104
2.6077976 0.52071434 0.42949748
2.6081378 0.56846642 0.4311277
1.9887732 0.64876205 0.42353454
2.0045731 0.63454431 0.42569932
2.6084831 0.61659789 0.43290406
1.9889814 0.6778844 0.42544404
2.6088295 0.66514206 0.43482885
1.9893324 0.72702754 0.4288308
2.5166228 0.73635161 0.42344144
2.5792682 0.72622496 0.43681511
2.6090913 0.70182794 0.43636715
1.9897282 0.77694243 0.42267469
1.9900913 0.82778138 0.42650986
1.9905005 0.87952751 0.4206779
1.9908009 0.92167526 0.4240891
1.991176 0.97268146 0.42585149
1.9915376 1.0191404 0.42224085
2.6140423 1.3667216 0.42324427
2.5935583 -1.4739292 0.48179677
1.9762477 -1.1003211 0.46831584
1.9764481 -1.066686 0.475348
1.9767309 -1.0247314 0.47533256
1.9770321 -0.9791795 0.47709143
1.9774113 -0.92604905 0.4721863
1.9777435 -0.8738901 0.47756431
2.5676999 -0.87512225 0.47497398
1.9781083 -0.82279509 0.47319779
2.5680556 -0.82532191 0.47229248
1.9784362 -0.77452964 0.47318119
2.5983586 -0.78263211 0.47022519
1.9830799 -0.73783898 0.473829
2.5986207 -0.73577106 0.48515642
2.5990555 -0.6748082 0.48237148
2.5994859 -0.6144703 0.47982991
2.5998275 -0.56665444 0.47798699
2.6001668 -0.51918983 0.47630394
2.6005025 -0.47204381 0.47477758
2.6008382 -0.42518485 0.47340611
2.6011705 -0.3785814 0.4721868
2.6015005 -0.33220318 0.47111785
2.6019132 -0.27451015 0.46999881
2.6023228 -0.21704826 0.46909398
2.6026506 -0.17122605 0.46854043
2.6029775 -0.12549785 0.46813154
2.6032209 -0.091244921 0.46791485
2.6036577 -0.022806302 0.4795596
2.6040356 0.022811728 0.46780393
2.6044424 0.079870984 0.46807152
2.6047697 0.12558496 0.46845388
2.6050968 0.17138769 0.46898073
2.6054237 0.21730761 0.46965298
2.6058352 0.27492583 0.4707073
2.6062481 0.33281019 0.47197771
2.6065803 0.37936956 0.47316891
2.606915 0.42617911 0.47451228
2.6072512 0.47326952 0.47600967
2.6075902 0.52067292 0.47766376
2.6079307 0.5684213 0.47947681
1.9885728 0.64869666 0.47164157
2.6082735 0.6165483 0.48145199
1.9887799 0.67781568 0.47376767
2.6086197 0.66508865 0.4835926
1.9891304 0.72695374 0.47753906
2.5791607 0.73026192 0.4693391
2.6089237 0.70997095 0.48980293
1.9895273 0.77686405 0.47173607
2.5795112 0.77942169 0.47181553
1.98989 0.82769763 0.47601631
1.9902995 0.87943888 0.47054094
1.9906013 0.92158294 0.4743568
1.9910233 0.97840768 0.47535089
1.9914184 1.0190793 0.45288944
2.6138356 1.3666135 0.47637266
2.5618343 -1.4559003 0.52926368
2.5693886 -0.91353065 0.52701479
2.569658 -0.87578958 0.52467078
2.5700786 -0.82597184 0.52172184
2.5662112 -0.77788174 0.52316153
2.5643706 -0.72606617 0.52734363
2.5707264 -0.67945552 0.52609348
2.5812302 -0.6268509 0.52310622
2.5787137 -0.57380939 0.52266937
2.5720356 -0.53308088 0.52368957
2.6000943 -0.50733447 0.51207721
2.5585203 -0.47022879 0.53263271
2.6003466 -0.47201544 0.51086652
2.5588651 -0.4183231 0.53683555
2.6006808 -0.42515919 0.50939071
2.5591912 -0.37247166 0.53545272
2.6010132 -0.37855855 0.50807863
2.5595181 -0.32684213 0.53424096
2.6013441 -0.33218318 0.50692862
2.5598421 -0.28140464 0.53319776
2.6017566 -0.2744936 0.50572449
2.560246 -0.22484064 0.53213722
2.6021669 -0.21703525 0.50475097
2.5606482 -0.16846277 0.53131789
2.6024933 -0.17121571 0.50415504
2.5609696 -0.1234725 0.53085423
2.6028206 -0.12549028 0.50371528
2.56129 -0.078546919 0.53055394
2.603147 -0.079830542 0.50343049
2.5616102 -0.033658359 0.53041667
2.6034718 -0.034208402 0.50330019
2.5620115 0.022443591 0.53048283
2.6038792 0.02281036 0.50336283
2.5624113 0.078582004 0.53078616
2.6042862 0.079866201 0.50365078
2.5627327 0.12355822 0.53121972
2.6046119 0.12557735 0.50406188
2.5630548 0.16862178 0.5318172
2.6049399 0.17137738 0.50462902
2.5634575 0.22512455 0.53280473
2.605268 0.21729463 0.5053525
2.563863 0.28184736 0.53403521
2.6056788 0.27490935 0.50648689
2.5641885 0.32743928 0.53521591
2.606092 0.3327902 0.50785387
2.5645156 0.3732473 0.53656673
2.6064234 0.37934673 0.50913548
2.5648339 0.41545534 0.53397816
2.6067581 0.42615345 0.51058102
2.5652266 0.4656412 0.52782661
2.6070938 0.473241 0.51219219
2.5656435 0.52401018 0.5301559
2.6074331 0.52064157 0.51397204
2.5660639 0.58288634 0.53274369
2.6077743 0.56838727 0.51592302
2.5812719 0.63408267 0.52589196
2.6043146 0.60356903 0.51675755
2.5756617 0.68076044 0.52712601
2.5697083 0.72757816 0.52846521
2.5677047 0.77585328 0.53077877
2.6092715 0.76353717 0.50073302
2.6095374 0.80096602 0.50275463
2.5717061 1.3445866 0.53448921
2.5719149 1.3735143 0.53701252
2.6136806 1.3665324 0.51640052
2.5516016 -1.4500849 0.58073884
2.5552616 -0.90850782 0.58644962
2.5555298 -0.87097442 0.5838412
2.5558841 -0.8214103 0.58054519
2.5562334 -0.77238733 0.57746214
2.5565801 -0.72386771 0.57458717
2.5569224 -0.67581379 0.57191515
2.5572629 -0.6281907 0.56944221
2.5576 -0.58096302 0.56716371
2.5579348 -0.53409755 0.56507605
2.5582633 -0.47887111 0.57785976
2.5586572 -0.41828912 0.58459502
2.5589848 -0.37244162 0.58308959
2.55931 -0.32681561 0.5817697
2.5596347 -0.28138185 0.58063376
2.5600383 -0.22482236 0.57947874
2.5604403 -0.16844907 0.57858658
2.5607624 -0.12346251 0.57808185
2.5610826 -0.078540564 0.5777548
2.5614023 -0.033655625 0.57760519
2.5618031 0.022441767 0.57767719
2.5622039 0.078575641 0.5780077
2.5625257 0.12354824 0.57847989
2.5628467 0.1686081 0.57913035
2.5632496 0.2251063 0.58020574
2.5636532 0.28182429 0.58154535
2.5639815 0.32741284 0.58283162
2.5643082 0.37321714 0.58430254
2.5646846 0.42158183 0.57885414
2.5650234 0.46328369 0.57087648
2.5654886 0.52397847 0.56624228
2.5659068 0.58285075 0.56900579
2.5662472 0.63039845 0.57144284
2.5665901 0.67836988 0.57407767
2.5669365 0.72680086 0.57691485
2.5672855 0.77572763 0.57995886
2.5674968 0.81273687 0.59477544
2.5715518 1.3445058 0.57420099
2.5717595 1.3734314 0.57691157
2.5514495 -1.4401913 0.63805985
2.5531535 -1.182025 0.64741826
2.5550117 -0.91684818 0.63304383
2.5553746 -0.87092161 0.62123466
2.555728 -0.82136005 0.61772716
2.556077 -0.77234006 0.6144467
2.5564182 -0.71979076 0.61935288
2.5567141 -0.67575884 0.62081861
2.5683234 -0.63491815 0.61706322
2.626982 -0.62096989 0.64624071
2.5574436 -0.58092749 0.60348874
2.627327 -0.57264805 0.64375865
2.5579991 -0.53021336 0.60922402
2.558104 -0.47015223 0.62874776
2.5584476 -0.41825485 0.63272768
2.5588298 -0.37241906 0.61904734
2.5591512 -0.32679528 0.61764508
2.5594778 -0.28136456 0.61643964
2.5598958 -0.21916246 0.62109107
2.5602312 -0.16843531 0.62622458
2.5606065 -0.123455 0.61373055
2.560926 -0.078535751 0.61338317
2.5612454 -0.03365358 0.61322445
2.5616617 0.028050564 0.61929512
2.5619938 0.078569219 0.62559795
2.5623057 0.11978839 0.62207186
2.5626874 0.16859761 0.61484295
2.563092 0.22509247 0.6159851
2.5706322 0.2864106 0.62731868
2.5637703 0.32738587 0.63081872
2.5640864 0.36936244 0.62824136
2.5644801 0.41924179 0.62209588
2.5649195 0.46945345 0.61616975
2.5656452 0.51815891 0.60838914
2.635257 0.53819841 0.64390671
2.5684772 0.57632482 0.62042028
2.5660272 0.6263724 0.61598402
2.5664334 0.67832851 0.61084557
2.5667782 0.72675598 0.61386406
2.5671282 0.77568007 0.61710322
2.5673821 0.82097107 0.63695854
2.5676436 0.86255217 0.64845473
2.5695996 1.1219585 0.64519423
2.5714204 1.3301618 0.62605625
2.5715508 1.37332 0.63041663
2.5611286 -1.4259263 0.68132079
2.6215291 -1.4000106 0.68387157
2.6217368 -1.3707446 0.68076742
2.6220489 -1.3273685 0.6762712
2.6223001 -1.2844652 0.68548155
2.5528102 -1.2228199 0.66449112
2.5622537 -1.1725686 0.68115067
2.6233366 -1.1317935 0.68399304
2.6237206 -1.0778432 0.67906523
2.6240966 -1.0202328 0.68277568
2.5545886 -0.95899868 0.66597641
2.5548069 -0.92098898 0.67550814
2.6129899 -0.90333146 0.67477882
2.6251564 -0.86911488 0.67492139
2.6255188 -0.81848699 0.67122459
2.6258759 -0.76839519 0.6677717
2.5562484 -0.71168137 0.67243874
2.5565047 -0.67570341 0.67012012
2.5905995 -0.64841062 0.67675829
2.6268206 -0.62093174 0.68403733
2.6271658 -0.57261294 0.68141019
2.6275079 -0.52464926 0.67901063
2.5579901 -0.45275521 0.68272078
2.627764 -0.48888037 0.67735136
2.5582366 -0.41822037 0.68126804
2.6272972 -0.38237852 0.67282748
2.6289403 -0.32402194 0.67128128
2.6293559 -0.26575854 0.66972941
2.5597782 -0.20221142 0.67483747
2.6296053 -0.23092079 0.6689558
2.5600209 -0.16842148 0.67426628
2.6303482 -0.12681746 0.66736025
2.6306767 -0.080674797 0.66698265
2.6310055 -0.03457018 0.66681015
2.5615435 0.044878259 0.67330885
2.6313355 0.011524728 0.66684258
2.5617836 0.078562759 0.67359161
2.5620248 0.11227705 0.67397827
2.6322408 0.13846399 0.66798151
2.6324892 0.17318985 0.66857076
2.6328201 0.21959265 0.6695292
2.5847321 0.29559797 0.68372756
2.6331534 0.26614311 0.67069674
2.5635595 0.32735896 0.67921281
2.5638053 0.36167735 0.68047154
2.634074 0.3951512 0.67499316
2.6343281 0.43066058 0.67645675
2.6346669 0.47824609 0.67859125
2.6350093 0.52614784 0.68094921
2.5701332 0.5719617 0.66727042
2.5657432 0.61835933 0.66882426
2.6361592 0.67211008 0.66398799
2.6365123 0.72161615 0.66715908
2.6368697 0.77161306 0.67056757
2.5672185 0.82505381 0.68336028
2.6221189 0.80482775 0.66944021
2.5674858 0.86249912 0.68638086
2.6379638 0.9249391 0.68227577
2.6383247 0.97291374 0.68193793
2.6387708 1.0303783 0.67818409
2.5691566 1.0818263 0.68037629
2.6119974 1.0596577 0.67481482
2.5694423 1.1218897 0.68428767
2.6398959 1.1802896 0.67884994
2.6401949 1.2223233 0.68300718
2.6406546 1.2791774 0.67518604
2.5713902 1.330145 0.67963523
2.6248806 1.3143606 0.67550063
2.5713415 1.373208 0.68432236
2.5668101 -1.4290651 0.71976972
2.6214728 -1.3852929 0.7236625
2.621887 -1.3272865 0.71724731
2.6221397 -1.2843865 0.72625113
2.5526004 -1.2227193 0.71726066
2.5675919 -1.1749859 0.71822476
2.6231749 -1.1317236 0.72399753
2.6235595 -1.077777 0.71878171
2.623889 -1.0289811 0.71864414
2.5543768 -0.95891917 0.71706712
2.554601 -0.92512876 0.71831065
2.6127789 -0.90325856 0.72654641
2.6249406 -0.86904335 0.72669882
2.6253014 -0.81841934 0.72271812
2.6256595 -0.76833183 0.71900058
2.5560365 -0.71162242 0.72234625
2.556293 -0.67564756 0.71985567
2.5903907 -0.64835835 0.7269879
2.6266022 -0.62088013 0.73480558
2.6269476 -0.57256544 0.73198342
2.6272895 -0.52460563 0.7294057
2.5577779 -0.45271766 0.73180932
2.6275454 -0.48883966 0.72762311
2.5580249 -0.41818574 0.73025215
2.6270852 -0.3823477 0.72276545
2.6287217 -0.32399499 0.72110254
2.6291378 -0.26573652 0.71943581
2.5595665 -0.20219466 0.72335917
2.6293864 -0.2309016 0.71860456
2.5598075 -0.16840743 0.72274655
2.6301296 -0.12680691 0.71689069
2.6304586 -0.080668107 0.71648514
2.6307883 -0.034567326 0.71630001
2.5613303 0.04487453 0.72172046
2.6311176 0.011523775 0.71633482
2.5615697 0.078556202 0.72202331
2.5618105 0.11226766 0.72243762
2.6320236 0.13845256 0.71755838
2.6322715 0.17317551 0.71819127
2.6326022 0.21957448 0.71922082
2.5845051 0.29557201 0.73288488
2.6329346 0.266121 0.72047478
2.5633464 0.32733169 0.72804886
2.563592 0.36164725 0.72939807
2.6338556 0.39511845 0.72509027
2.6341095 0.43062484 0.72666234
2.6344485 0.47820643 0.72895539
2.6347909 0.52610427 0.73148835
2.5699182 0.57191396 0.71679378
2.5655298 0.61830789 0.71846318
2.6359417 0.67205465 0.7149266
2.6362958 0.7215569 0.71834117
2.6366527 0.77154958 0.72201097
2.5670056 0.82498538 0.73407829
2.6218982 0.8047601 0.72079587
2.5673261 0.86244541 0.72452885
2.6377468 0.92486304 0.73461747
2.6382427 0.98164344 0.71775502
2.6386085 1.030315 0.71784902
2.5689449 1.0817373 0.73257208
2.6118338 1.0595913 0.7142818
2.5692308 1.1217973 0.73678362
2.6396775 1.180192 0.73275948
2.6399629 1.217536 0.73219103
2.6404924 1.2790989 0.71609664
2.5711777 1.3300352 0.73360723
2.6247172 1.3142788 0.71642971
2.5711844 1.3731242 0.72502315
2.5640228 -1.4275242 0.7712763
2.6212568 -1.3851787 0.7791791
2.6216707 -1.327177 0.77227169
2.6219759 -1.2843063 0.76731336
2.5523887 -1.222618 0.77049476
2.5649555 -1.1737908 0.76797533
2.6229565 -1.1316295 0.77773142
2.6233411 -1.0776871 0.77212834
2.6237221 -1.0245012 0.76683968
2.5541649 -0.95883971 0.7686252
2.554436 -0.92085505 0.76500881
2.612566 -0.90318495 0.77878714
2.6247225 -0.86897111 0.77894926
2.6250837 -0.81835139 0.7746824
2.6254413 -0.76826799 0.77069741
2.5558219 -0.71156269 0.77272612
2.5560796 -0.67559111 0.77006215
2.5901804 -0.64830565 0.77769369
2.6263833 -0.62082845 0.78605491
2.6267281 -0.57251751 0.7830357
2.6270704 -0.52456188 0.78027833
2.5575633 -0.45267963 0.78137898
2.6273248 -0.48879868 0.7783711
2.5578089 -0.41815045 0.77971619
2.6268704 -0.38231644 0.77317625
2.6285019 -0.3239679 0.77139598
2.6289184 -0.26571432 0.76961315
2.5593514 -0.2021777 0.77235651
2.6291666 -0.2308823 0.76872379
2.5595918 -0.16839324 0.77170217
2.6299095 -0.12679631 0.76689023
2.6302385 -0.080661356 0.76645648
2.6305687 -0.034564447 0.76625872
2.5611148 0.044870757 0.77060664
2.6308973 0.011522809 0.76629555
2.5613549 0.078549609 0.77093029
2.561595 0.11225821 0.77137244
2.6318033 0.13844097 0.76760459
2.6320512 0.17316103 0.76828158
2.6323826 0.21955614 0.76938307
2.5842762 0.29554585 0.78252387
2.6327145 0.26609877 0.77072442
2.5631304 0.32730412 0.77736366
2.563375 0.36161667 0.778804
2.6336355 0.39508545 0.77566183
2.6338892 0.43058878 0.77734351
2.6342282 0.47816646 0.77979648
2.6345704 0.52606022 0.78250599
2.569701 0.57186556 0.76678592
2.5653152 0.61825609 0.76857251
2.6357222 0.67199862 0.76633048
2.636076 0.7214967 0.76999038
2.6364331 0.77148533 0.77392423
2.5667903 0.82491624 0.78527653
2.621675 0.80469155 0.77262032
2.5671654 0.86239147 0.76297247
2.6375141 0.92045766 0.7825951
2.6380112 0.97717756 0.76589465
2.6383898 1.0302296 0.77112675
2.5687313 1.0816474 0.78524482
2.611614 1.0595021 0.76729381
2.5690711 1.1217276 0.7764523
2.6395149 1.1801193 0.77348566
2.6398838 1.2268592 0.76962024
2.6402745 1.2789934 0.77103275
2.5710661 1.32522 0.78291708
2.6244979 1.3141689 0.77139056
2.5710242 1.3730388 0.76601607
2.5638096 -1.4274057 0.8267321
2.6210916 -1.3801969 0.82986808
2.6214519 -1.3270662 0.82779855
2.6217585 -1.2842 0.8224842
2.5521755 -1.2225158 0.82423311
2.5647418 -1.1736931 0.82153821
2.6227376 -1.1315349 0.83197451
2.6231225 -1.0775974 0.82598078
2.6235015 -1.0244151 0.82032269
2.5539498 -0.95875889 0.82068843
2.5542214 -0.92077768 0.81682742
2.6123509 -0.90311056 0.83154035
2.6245017 -0.86889809 0.83171201
2.6248634 -0.81828266 0.82715625
2.6252208 -0.7682035 0.82290131
2.5556068 -0.71150285 0.82361764
2.5558634 -0.67553401 0.82077783
2.5899677 -0.64825249 0.82891405
2.6262083 -0.61673903 0.83320266
2.6265059 -0.57246912 0.83460581
2.6268487 -0.52451754 0.83166695
2.5573449 -0.45264104 0.83146811
2.6271038 -0.48875755 0.82963443
2.5575922 -0.41811505 0.8296991
2.6266539 -0.38228497 0.82409883
2.6282809 -0.32394069 0.8222
2.6286972 -0.26569197 0.82029957
2.559134 -0.20216054 0.82186759
2.6289444 -0.23086277 0.81935138
2.5593746 -0.16837895 0.82117134
2.6296873 -0.12678561 0.81739718
2.6300163 -0.080654547 0.81693482
2.6303463 -0.034561522 0.81672382
2.5608974 0.044866942 0.82000554
2.6306748 0.011521835 0.81676328
2.5611374 0.078542948 0.82034993
2.561377 0.11224866 0.82082027
2.6315813 0.13842931 0.81815863
2.6318288 0.17314637 0.81888002
2.6321607 0.21953765 0.82005429
2.5840447 0.29551938 0.83268279
2.6324921 0.26607627 0.82148385
2.5629132 0.32727641 0.82719582
2.5631571 0.36158592 0.82872832
2.6334136 0.39505213 0.82674646
2.633666 0.43055236 0.82853872
2.6340058 0.47812605 0.83115333
2.6343482 0.52601582 0.83404148
2.5694818 0.57181692 0.8172853
2.5650997 0.61820424 0.81919062
2.6355009 0.67194223 0.8182385
2.6358547 0.72143626 0.82214636
2.6362112 0.77142036 0.8263464
2.5665622 0.82070905 0.83225316
2.6214499 0.80462253 0.82495284
2.5669498 0.86231905 0.8146531
2.6374297 0.92907554 0.81890267
2.6377902 0.97709572 0.81931198
2.6381686 1.0301433 0.82490885
2.5685692 1.081579 0.82506877
2.6113918 1.059412 0.82080764
2.5689096 1.1216571 0.81643921
2.6393495 1.1800452 0.8145268
2.6396496 1.2220709 0.81951535
2.6400557 1.2788873 0.82647097
2.5707543 1.3345736 0.82062787
2.6242762 1.3140581 0.82685328
2.5708108 1.3729246 0.82109344
2.5583889 -1.4302908 0.87896788
2.6208746 -1.3898715 0.86877584
2.6212313 -1.3269546 0.88387001
2.6215377 -1.2840917 0.87819564
2.5519595 -1.2224123 0.87851638
2.5645266 -1.1735945 0.87564462
2.6225665 -1.1269201 0.88162136
2.6229005 -1.0775063 0.88037932
2.6232808 -1.0243289 0.87434882
2.5537333 -0.95867759 0.87329781
2.554004 -0.92069936 0.86918896
2.612134 -0.90303552 0.88484693
2.6242793 -0.86882436 0.885028
2.6246405 -0.81821328 0.88018024
2.6249974 -0.76813811 0.87565231
2.5553885 -0.71144199 0.87505984
2.555645 -0.67547619 0.87204266
2.5897527 -0.6481986 0.88068914
2.6260021 -0.6247862 0.86856079
2.6263292 -0.56841463 0.88208961
2.6266241 -0.52447277 0.88361192
2.557128 -0.4526026 0.88211793
2.6268802 -0.48871595 0.88145268
2.5573745 -0.41807944 0.88024092
2.6264348 -0.38225308 0.8755728
2.628056 -0.32391298 0.87355357
2.6284721 -0.2656692 0.87153435
2.5589161 -0.20214331 0.87193227
2.6287203 -0.2308431 0.87052727
2.5591564 -0.1683646 0.87119371
2.6294632 -0.1267748 0.86845112
2.6297927 -0.080647692 0.86795998
2.6301217 -0.034558572 0.86773551
2.5606799 0.044863131 0.86995697
2.6304507 0.011520853 0.86777747
2.5609195 0.078536257 0.87032217
2.5611596 0.11223912 0.87082142
2.6313562 0.13841745 0.86925972
2.6316042 0.1731316 0.87002641
2.6319346 0.21951878 0.87127352
2.5838115 0.29549271 0.88340187
2.6322668 0.2660535 0.87279254
2.562695 0.3272486 0.87758529
2.5629392 0.36155516 0.87921113
2.6331892 0.39501846 0.87838435
2.6334414 0.43051565 0.88028836
2.633781 0.47808528 0.8830663
2.6341133 0.52197021 0.88149738
2.5692604 0.57176757 0.86833137
2.5648804 0.61815143 0.8703562
2.6352768 0.67188507 0.87069058
2.6356301 0.72137475 0.87484896
2.6359873 0.77135491 0.87931848
2.5664773 0.82894927 0.86782593
2.621223 0.80455279 0.87783396
2.5667319 0.8622458 0.86687553
2.6371937 0.92466915 0.86765063
2.6375673 0.97701311 0.87327129
2.6379466 1.0300565 0.87923717
2.5684068 1.0815107 0.86523509
2.6111674 1.059321 0.87486422
2.5686922 1.1215622 0.87020922
2.6391282 1.1799462 0.8696996
2.6394279 1.2219682 0.87502587
2.6398327 1.2787794 0.88245231
2.5706401 1.3297571 0.87070501
2.6240525 1.313946 0.88285977
2.5705934 1.3728085 0.87671041
2.5660625 -1.4227675 0.92511004
2.6207068 -1.3848882 0.92028201
2.6210651 -1.3268704 0.92628789
2.621314 -1.283982 0.93449092
2.5517414 -1.2223079 0.93338746
2.5643089 -1.1734947 0.93033677
2.6223536 -1.1359104 0.9195556
2.6227274 -1.0729603 0.93020105
2.6230569 -1.0242414 0.92895967
2.5535164 -0.95859623 0.92649579
2.553787 -0.92062116 0.92213655
2.6119692 -0.90297866 0.92519563
2.6241097 -0.86876822 0.92538345
2.6244166 -0.81814343 0.933797
2.6247747 -0.7680729 0.9289937
2.5551724 -0.71138191 0.92709625
2.5554285 -0.67541909 0.92389953
2.5895343 -0.64814401 0.93306053
2.6258259 -0.62069672 0.91654229
2.6261239 -0.57640195 0.9176926
2.6264491 -0.52045083 0.93148559
2.5569072 -0.45256358 0.93336844
2.6266556 -0.48867416 0.93386841
2.5571547 -0.41804349 0.93138272
2.6262147 -0.38222107 0.92764038
2.6278329 -0.32388544 0.92549992
2.6282487 -0.26564664 0.92336071
2.5586953 -0.20212585 0.92259097
2.6284969 -0.23082349 0.92229378
2.5589371 -0.16835018 0.92180991
2.6292398 -0.12676403 0.92009401
2.6295695 -0.080640845 0.9195739
2.6298978 -0.034555633 0.91933584
2.5604582 0.044859245 0.92050064
2.6302264 0.011519872 0.91938013
2.5606987 0.078529492 0.92088753
2.5609381 0.11222942 0.92141545
2.631134 0.13840576 0.92095125
2.6313801 0.17311686 0.921763
2.631712 0.21950021 0.92308474
2.5835757 0.29546577 0.9347223
2.6320441 0.26603097 0.92469406
2.562474 0.32722032 0.92857236
2.5627196 0.36152416 0.93029326
2.6329641 0.39498472 0.93061763
2.6332178 0.43047908 0.93263531
2.6335578 0.47804472 0.93557858
2.6340215 0.52994931 0.91706723
2.5690391 0.57171845 0.91996616
2.5646615 0.61809862 0.92211217
2.6350532 0.67182815 0.92372984
2.6354065 0.72131354 0.92814136
2.6357625 0.77128911 0.93288273
2.5662467 0.82474148 0.91563493
2.6209927 0.8044821 0.93130553
2.5665131 0.86217237 0.91968191
2.6369686 0.92459023 0.92184317
2.6373429 0.97693002 0.9278152
2.6377211 1.0299685 0.9341532
2.5681875 1.0814183 0.91927671
2.6109405 1.0592289 0.92950588
2.5684748 1.1214674 0.92456222
2.6389036 1.1798458 0.92545056
2.6392033 1.2218642 0.93111825
2.6396651 1.2786982 0.92480201
2.5704217 1.3296442 0.92652059
2.6238835 1.3138613 0.92522806
2.5703759 1.3726923 0.93291122
2.5658464 -1.4285287 0.97167289
2.6204827 -1.3847697 0.97776163
2.6208968 -1.3267853 0.96909386
2.6211462 -1.2838999 0.97710246
2.5515802 -1.2222308 0.97493374
2.5591927 -1.1766045 0.98176497
2.6221817 -1.1312951 0.97008479
2.6225164 -1.0818232 0.96828896
