# .PCD v0.7 - Point Cloud Data file format
VERSION 0.7
FIELDS x y z
SIZE 4 4 4
TYPE F F F
COUNT 1 1 1
WIDTH 1486
HEIGHT 1
VIEWPOINT 0 0 0 1 0 0 0
POINTS 1486
DATA ascii
2.5804565 -0.48007905 0.08513581
2.56811 -0.45454642 0.084593862
2.5816739 -0.4336611 0.084912278
2.5965106 -0.41280225 0.085278064
2.6144903 -0.39221334 0.08575245
2.632678 -0.37139326 0.08623898
2.6530585 -0.35059607 0.086802654
2.6771181 -0.32994381 0.087491922
2.5803564 -0.48006043 0.1082784
2.5847411 -0.45749006 0.10829008
2.598392 -0.43646938 0.10869766
2.6143756 -0.41564247 0.10920981
2.6325796 -0.394927 0.10982152
2.6509969 -0.37397748 0.11044893
2.6674716 -0.35250077 0.11100242
2.6195314 -0.48734874 0.13343666
2.7188575 -0.40787002 0.13768348
2.6991546 -0.38077116 0.13651158
2.6553915 -0.5181241 0.1593865
2.6245561 -0.48828357 0.15727291
2.7187493 -0.40785375 0.16196118
2.5967031 -1.9309986 0.21925382
2.6011107 -1.8991219 0.21821304
2.6054773 -1.8675441 0.21719868
2.609802 -1.836255 0.21621008
2.6140897 -1.8052483 0.21524702
2.6183398 -1.7745142 0.21430887
2.6225522 -1.7440438 0.21339509
2.62673 -1.7138305 0.21250536
2.6308742 -1.6838663 0.21163926
2.6349833 -1.654142 0.21079616
2.63906 -1.6246512 0.20997579
2.6431081 -1.5953884 0.20917796
2.6483085 -1.5670449 0.20849523
2.6619418 -1.5437934 0.20849593
2.6753705 -1.5204232 0.20849662
2.6885941 -1.4969363 0.2084973
2.7016122 -1.4733348 0.20849805
2.7144227 -1.4496198 0.20849876
2.7270255 -1.4257935 0.20849949
2.7394187 -1.4018576 0.20850021
2.7516022 -1.3778141 0.20850094
2.655288 -0.5181039 0.18330134
2.6423197 -0.49158835 0.18210188
2.7186418 -0.40783766 0.18626225
3.0262003 0.56300712 0.20855793
3.0211635 0.58949411 0.20855868
3.0158951 0.6159361 0.20855944
3.0103948 0.64233083 0.20856015
3.0046642 0.66867673 0.20856091
2.9987037 0.69497162 0.20856173
2.992512 0.72121316 0.20856246
2.9860904 0.74739945 0.20856319
2.97944 0.7735287 0.20856394
2.9743342 0.80007577 0.20868909
2.9783602 0.82920092 0.20947315
2.982419 0.8585487 0.21027946
2.5966008 -1.9309226 0.24789114
2.6010079 -1.8990468 0.24671437
2.6053753 -1.867471 0.2455676
2.6097007 -1.8361837 0.24444996
2.6139879 -1.8051779 0.24336109
2.6182375 -1.7744449 0.24230039
2.6224508 -1.7439766 0.24126735
2.6266286 -1.7137645 0.24026144
2.6307712 -1.6838005 0.23928207
2.634881 -1.6540779 0.23832893
2.6389596 -1.6245893 0.23740157
2.6430047 -1.5953261 0.23649929
2.6470201 -1.5662824 0.23562191
2.6510062 -1.5374514 0.23476897
2.6549647 -1.5088266 0.23394014
2.6588957 -1.480401 0.23313496
2.6628006 -1.4521687 0.23235314
2.6666775 -1.4241217 0.23159406
2.6705313 -1.3962562 0.23085772
2.67436 -1.3685648 0.23014358
2.6781647 -1.3410418 0.22945133
2.6819487 -1.3136824 0.22878088
2.6857097 -1.2864799 0.22813168
2.6894503 -1.2594297 0.22750363
2.693171 -1.2325261 0.22689641
2.6968708 -1.2057629 0.22630963
2.7005534 -1.1791365 0.22574328
2.7042162 -1.1526403 0.22519684
2.7078617 -1.1262701 0.22467025
2.7114913 -1.1000212 0.22416335
2.7151053 -1.0738888 0.22367589
2.7187047 -1.047868 0.2232077
2.7222862 -1.0219527 0.22275826
2.7258551 -0.99614036 0.22232778
2.7294109 -0.97042561 0.22191599
2.732954 -0.94480401 0.22152267
2.7364845 -0.91927105 0.22114769
2.7400033 -0.89382249 0.22079088
2.7435114 -0.86845398 0.22045211
2.7470088 -0.84316123 0.22013125
2.750495 -0.8179397 0.21982805
2.7539742 -0.79278624 0.21954268
2.7574439 -0.76769596 0.2192748
2.7609043 -0.74266458 0.21902427
2.7643561 -0.71768814 0.21879101
2.7678037 -0.69276369 0.21857521
2.771244 -0.66788626 0.21837652
2.7746773 -0.64305186 0.21819483
2.7781067 -0.61825722 0.21803029
2.7815306 -0.59349793 0.21788265
2.7849495 -0.56877005 0.21775183
2.6551828 -0.51808339 0.20724276
2.7917759 -0.51939386 0.21754071
2.7951849 -0.49473786 0.2174603
2.7985923 -0.47009835 0.21739672
2.7535019 -0.43776125 0.21358798
2.7363341 -0.41049176 0.21196926
2.8088057 -0.39623967 0.21730603
2.8122091 -0.37162751 0.21730918
2.8156126 -0.3470127 0.21732895
2.8190169 -0.32239154 0.21736541
2.8224213 -0.29776007 0.21741846
2.8258293 -0.27311483 0.21748835
2.8292398 -0.24845187 0.217575
2.832653 -0.22376734 0.21767841
2.8360696 -0.19905743 0.21779862
2.8394909 -0.17431834 0.21793573
2.8429165 -0.14954618 0.21808974
2.8463471 -0.12473706 0.21826074
2.8497813 -0.099887043 0.21844859
2.8532245 -0.074992366 0.2186538
2.8566737 -0.050048944 0.21887612
2.8601305 -0.025052832 0.21911576
2.8635945 0 0.21937273
2.8670664 0.025113584 0.21964712
2.8705482 0.05029203 0.21993919
2.8740394 0.075539455 0.22024892
2.8775413 0.10086005 0.22057652
2.881052 0.12625796 0.22092195
2.8845737 0.15173748 0.22128542
2.8881099 0.17730311 0.22166733
2.8916566 0.20295896 0.22206748
2.8952169 0.22870962 0.2224862
2.898792 0.25455967 0.22292373
2.9023817 0.28051358 0.22338018
2.9059844 0.3065758 0.22385554
2.9096048 0.33275142 0.22435035
2.9132397 0.35904485 0.22486451
2.9168937 0.38546136 0.22539851
2.9205632 0.41200534 0.22595227
2.9242511 0.43868217 0.22652617
2.9279609 0.46549734 0.2271207
2.9316862 0.49245501 0.22773553
2.9354341 0.51956147 0.22837146
2.9392042 0.54682201 0.22902861
2.9429953 0.57424182 0.22970717
2.9468107 0.60182697 0.23040757
2.9506471 0.62958246 0.23112985
2.9545097 0.65751499 0.23187466
2.9583991 0.68563074 0.23264232
2.962311 0.71393454 0.23343277
2.9662523 0.74243408 0.23424682
2.9702201 0.77113497 0.23508455
2.9742177 0.80004442 0.23594655
2.9782445 0.82916874 0.2368331
2.9823031 0.85851532 0.23774473
2.5964999 -1.9308474 0.27656499
2.6306698 -1.6837356 0.2669602
2.6347771 -1.6540126 0.26589656
2.6388569 -1.6245261 0.26486209
2.6429021 -1.5952641 0.26385546
2.6469178 -1.566222 0.26287663
2.5230696 -1.3759658 0.24563611
2.5591798 -1.3667132 0.24797665
2.6047335 -1.3618546 0.25122514
2.6459801 -1.3540418 0.25404969
2.6497462 -1.3268116 0.25328568
2.6534877 -1.2997416 0.25254539
2.6829755 -1.2851702 0.2542707
2.6893456 -1.2593807 0.25381923
2.6930664 -1.232478 0.25314179
2.6967649 -1.2057155 0.25248703
2.7004473 -1.1790901 0.25185516
2.7041099 -1.152595 0.25124553
2.7077563 -1.1262262 0.25065809
2.711386 -1.0999784 0.2500926
2.7149992 -1.0738468 0.24954869
2.7185965 -1.0478263 0.24902616
2.7221816 -1.0219135 0.24852508
2.72575 -0.99610192 0.24804479
2.7293046 -0.97038776 0.24758524
2.7328491 -0.94476771 0.24714659
2.7363782 -0.91923535 0.24672811
2.739897 -0.8937878 0.24633004
2.7434049 -0.86842024 0.24595208
2.746902 -0.84312844 0.24559408
2.7503884 -0.81790799 0.24525583
2.753866 -0.79275513 0.24493735
2.7573357 -0.7676658 0.24463849
2.7607968 -0.74263561 0.24435905
2.7642515 -0.71766096 0.24409907
2.7676961 -0.69273674 0.24385805
2.7711349 -0.66785991 0.24363625
2.7745697 -0.64302689 0.2434337
2.7779984 -0.61823308 0.24325007
2.7814212 -0.59347451 0.24308527
2.6921651 -0.54982072 0.23485473
2.6599579 -0.51901507 0.23163959
2.7916677 -0.51937366 0.24270391
2.7950757 -0.49471852 0.24261415
2.7984829 -0.47007996 0.24254319
2.7533925 -0.43774384 0.23829377
2.8052917 -0.42083645 0.24245708
2.8086951 -0.39622408 0.24244197
2.812099 -0.37161297 0.24244553
2.8155019 -0.34699908 0.24246755
2.8189063 -0.32237887 0.24250825
2.8223124 -0.29774857 0.24256758
2.8257198 -0.27310428 0.24264553
2.8291299 -0.24844223 0.24274218
2.8325436 -0.2237587 0.24285759
2.8359587 -0.19904964 0.24299158
2.8393793 -0.17431149 0.24314451
2.8428056 -0.14954035 0.24331643
2.846235 -0.12473215 0.24350709
2.8496709 -0.099883176 0.24371685
2.8531137 -0.074989453 0.24394575
2.8565626 -0.050046999 0.24419379
2.8600192 -0.025051856 0.24446113
2.8634832 0 0.24474785
2.8669527 0.02511259 0.24505378
2.8704348 0.050290041 0.24537964
2.8739262 0.075536475 0.24572524
2.8774273 0.10085606 0.2460907
2.8809397 0.12625304 0.24647622
2.8844628 0.15173164 0.24688187
2.8879974 0.17729619 0.24730782
2.8915446 0.20295109 0.24775432
2.8644967 0.22628286 0.24559721
2.8680348 0.25185871 0.24608026
2.8715839 0.27753702 0.24658391
2.8751502 0.30332285 0.2471088
2.8526313 0.32623577 0.24540958
2.8802848 0.3549833 0.24804658
2.8859398 0.38137087 0.24881171
2.8895717 0.40763336 0.2494231
2.8932223 0.4340274 0.2500568
2.927845 0.46547893 0.25339186
2.9315736 0.49243611 0.25407812
2.9353216 0.51954156 0.25478759
2.9390886 0.54680055 0.25552052
2.9428811 0.57421952 0.25627768
2.9466946 0.60180324 0.25705895
2.9505334 0.62955815 0.25786501
2.9543931 0.65748912 0.25869575
2.9582822 0.68560362 0.25955218
2.9621947 0.71390647 0.26043409
2.9661357 0.74240494 0.26134232
2.9701037 0.77110481 0.26227698
2.9741025 0.80001342 0.26323882
2.9781287 0.82913649 0.26422787
2.9821882 0.85848218 0.26524502
2.3704576 -1.2927383 0.2547493
2.4635613 -1.3156489 0.26350641
2.5189593 -1.3170085 0.26818764
2.577925 -1.3192155 0.27322483
2.6409395 -1.3224018 0.27866513
2.6533844 -1.2996911 0.27876633
2.6827359 -1.2850555 0.28065667
2.6892402 -1.2593313 0.28017238
2.6929588 -1.2324289 0.2794244
2.6966596 -1.2056683 0.27870187
2.7003419 -1.1790441 0.27800441
2.7040052 -1.1525503 0.27733156
2.7076504 -1.1261822 0.27668306
2.7112803 -1.0999357 0.27605888
2.7148924 -1.0738045 0.2754584
2.7184904 -1.0477854 0.27488169
2.7220747 -1.0218734 0.27432853
2.7256424 -0.99606258 0.27379829
2.7291985 -0.97035009 0.27329123
2.7327406 -0.94473028 0.27280682
2.7362707 -0.91919923 0.27234498
2.7397881 -0.89375222 0.27190545
2.7432966 -0.86838597 0.27148834
2.7467937 -0.84309524 0.27109319
2.7502806 -0.81787592 0.27071989
2.7537599 -0.79272455 0.27036849
2.7572267 -0.76763552 0.27003834
2.7606878 -0.74260634 0.26972988
2.764143 -0.71763283 0.26944298
2.7675889 -0.69270992 0.26917708
2.7710273 -0.66783404 0.26893225
2.7744622 -0.64300203 0.26870868
2.7778895 -0.61820889 0.26850584
2.7813125 -0.59345132 0.26832396
2.692059 -0.54979908 0.25923881
2.6783078 -0.52259558 0.2574639
2.7915597 -0.51935363 0.26790312
2.7949679 -0.49469948 0.26780409
2.7892587 -0.46853054 0.2668536
2.7552991 -0.43804699 0.2632274
2.8051834 -0.42082021 0.2676307
2.8085868 -0.39620879 0.26761404
2.8119891 -0.37159842 0.26761779
2.815393 -0.34698564 0.26764223
2.8187964 -0.32236633 0.26768705
2.8222003 -0.29773673 0.26775235
2.8256083 -0.27309349 0.26783848
2.8290186 -0.24843246 0.2679452
2.832432 -0.22374989 0.26807258
2.835849 -0.19904195 0.26822066
2.8392694 -0.17430474 0.26838946
2.8426938 -0.14953446 0.26857907
2.8461244 -0.12472731 0.26878965
2.8495603 -0.099879295 0.26902118
2.853003 -0.074986547 0.26927388
2.8564501 -0.050045028 0.26954749
2.859906 -0.025050864 0.26984254
2.8633704 0 0.27015907
2.8668423 0.025111623 0.27049702
2.8703237 0.050288092 0.27085668
2.8738146 0.075533539 0.27123812
2.8773162 0.10085216 0.27164155
2.8808281 0.12624815 0.2720671
2.8843498 0.15172569 0.27251473
2.8878849 0.17728928 0.27298498
2.8914328 0.20294324 0.27347788
2.8643842 0.22627395 0.27109665
2.8679202 0.25184861 0.27162966
2.8140676 0.27197808 0.26674452
2.9699898 0.77107519 0.28950849
2.9739857 0.79998201 0.29056993
2.9780118 0.82910395 0.29166168
2.9820688 0.85844785 0.29278421
2.3747499 -1.2682197 0.27794778
2.4669447 -1.2898134 0.28740516
2.5289352 -1.2941458 0.29329532
2.5947945 -1.2992955 0.29960197
2.6532824 -1.299641 0.305029
2.6826334 -1.2850064 0.30709752
2.6891346 -1.2592819 0.30656728
2.6928546 -1.2323812 0.305749
2.6965554 -1.2056218 0.30495843
2.7002373 -1.1789985 0.30419523
2.7038984 -1.1525049 0.30345878
2.7075443 -1.1261381 0.30274928
2.7111745 -1.0998927 0.30206633
2.7147872 -1.073763 0.30140936
2.7183833 -1.0477442 0.30077815
2.721967 -1.0218329 0.30017278
2.7255371 -0.99602413 0.29959288
2.7290912 -0.97031194 0.29903784
2.732635 -0.94469374 0.29850799
2.7361639 -0.91916335 0.29800251
2.7396824 -0.89371771 0.29752171
2.7431893 -0.86835206 0.29706517
2.7466862 -0.84306222 0.29663277
2.7501736 -0.81784409 0.29622436
2.7536511 -0.79269332 0.2958397
2.7571199 -0.76760578 0.29547867
2.7605805 -0.74257743 0.29514113
2.7640347 -0.71760476 0.2948271
2.7674792 -0.69268245 0.29453599
2.7709181 -0.6678077 0.29426816
2.7743526 -0.64297658 0.29402351
2.7777801 -0.61818451 0.29380161
2.7812035 -0.59342813 0.29360268
2.691957 -0.54977822 0.28366196
2.7880371 -0.54400611 0.29327288
2.7338772 -0.50862211 0.28709617
2.7077639 -0.47926468 0.28390217
2.7891483 -0.46851197 0.29199362
2.7749019 -0.44116351 0.29008651
2.8050728 -0.42080361 0.292844
2.8084755 -0.39619309 0.2928257
2.8118782 -0.37158379 0.29282987
2.8152809 -0.34697184 0.29285648
2.8186865 -0.32235375 0.29290581
2.8220909 -0.2977252 0.29297733
2.8254986 -0.27308288 0.29307151
2.8289089 -0.24842283 0.2931883
2.8323219 -0.22374119 0.29332766
2.8357379 -0.19903414 0.29348963
2.8391588 -0.17429794 0.29367438
2.8425834 -0.14952865 0.29388186
2.8460121 -0.12472238 0.29411212
2.8494482 -0.099875368 0.29436553
2.8528893 -0.07498356 0.29464185
2.8563392 -0.050043087 0.29494157
2.8597951 -0.025049895 0.29526442
2.8632593 0 0.29561079
2.8667305 0.025110643 0.29598048
2.8702126 0.050286148 0.29637411
2.8737035 0.075530618 0.29679149
2.8772037 0.10084822 0.29723284
2.8807127 0.12624308 0.29769814
2.8842361 0.15171972 0.29818818
2.8877718 0.17728235 0.29870278
2.8913186 0.20293523 0.29924205
2.8642726 0.22626515 0.29663661
2.8137634 0.2470928 0.29161862
2.9698727 0.77104485 0.31678292
2.97387 0.7999509 0.3179445
2.9778955 0.82907158 0.31913903
2.9819534 0.85841459 0.32036746
2.3409281 -1.2501572 0.29763192
2.4012475 -1.2554643 0.30389124
2.4972789 -1.2779461 0.31461585
2.5659428 -1.2848487 0.32183614
2.6391399 -1.2927138 0.32958409
2.6825311 -1.2849574 0.33358452
2.6890299 -1.2592329 0.33300826
2.69275 -1.2323333 0.33211944
2.6964493 -1.2055744 0.33126053
2.700129 -1.1789513 0.33043128
2.7037935 -1.1524601 0.32963172
2.7074385 -1.1260941 0.32886094
2.7110672 -1.0998491 0.32811889
2.7146811 -1.0737211 0.32740545
2.7182786 -1.0477037 0.32671997
2.7218599 -1.0217928 0.32606214
2.7254293 -0.99598467 0.32543215
2.7289853 -0.97027433 0.32482949
2.7325263 -0.94465619 0.32425362
2.7360561 -0.91912711 0.32370466
2.7395749 -0.89368266 0.32318243
2.7430832 -0.86831844 0.32268667
2.7465792 -0.84302938 0.3222169
2.7500665 -0.81781232 0.32177332
2.7535424 -0.79266196 0.32135528
2.7570119 -0.76757574 0.32096323
2.760473 -0.74254853 0.32059664
2.7639246 -0.71757609 0.32025522
2.7673717 -0.69265556 0.31993935
2.7708099 -0.66778159 0.31964833
2.7742448 -0.64295161 0.31938264
2.7776721 -0.61816043 0.3191416
2.7301233 -0.58252907 0.31308022
2.6967161 -0.55075014 0.30868411
2.7383382 -0.53430879 0.31290075
2.7071912 -0.50365734 0.30882573
2.6843491 -0.47512034 0.3057335
2.6701548 -0.44852382 0.30365774
2.8015602 -0.44540173 0.31814563
2.8049638 -0.42078725 0.31810141
2.808367 -0.3961778 0.31808159
2.811769 -0.37156934 0.31808606
2.8151717 -0.34695837 0.318115
2.8185754 -0.32234102 0.31816837
2.8219812 -0.29771364 0.31824625
2.825388 -0.27307218 0.31834847
2.8287973 -0.24841301 0.31847522
2.8322089 -0.22373225 0.31862643
2.8356256 -0.19902627 0.31880248
2.8390458 -0.17429103 0.31900313
2.8424714 -0.14952277 0.31922862
2.845901 -0.12471752 0.31947887
2.8493371 -0.099871479 0.31975412
2.8527794 -0.074980661 0.32005441
2.8562269 -0.05004112 0.32037973
2.859683 -0.025048913 0.32073051
2.8631468 0 0.32110667
2.8666186 0.025109664 0.32150835
2.8700979 0.05028414 0.32193565
2.873589 0.075527616 0.32238907
2.8770893 0.1008442 0.32286847
2.8806009 0.1262382 0.32337424
2.8841243 0.15171383 0.32390651
2.8876576 0.17727533 0.32446527
2.8912055 0.20292731 0.32505122
2.8569052 0.22568317 0.32140481
2.7629325 0.24262907 0.31105995
2.9737532 0.79991949 0.34536663
2.9777789 0.8290391 0.34666425
2.9818356 0.85838073 0.3479985
2.3184147 -1.2381343 0.31823123
2.3807633 -1.2447544 0.32528025
2.4793217 -1.2687567 0.3372148
2.5513544 -1.2775438 0.34547675
2.6288543 -1.2876755 0.35443005
2.6824276 -1.2849078 0.36012173
2.6889246 -1.2591835 0.35949942
2.6926432 -1.2322844 0.35853973
2.6963432 -1.2055269 0.35761261
2.7000241 -1.1789054 0.35671753
2.7036867 -1.1524147 0.35585415
2.7073319 -1.1260498 0.3550221
2.7109611 -1.0998061 0.35422111
2.7145734 -1.0736784 0.35345072
2.7181711 -1.0476624 0.35271075
2.7217529 -1.0217526 0.35200068
2.7253225 -0.99594569 0.35132062
2.7288771 -0.97023582 0.35066983
2.7324188 -0.94461894 0.35004824
2.735949 -0.91909117 0.34945574
2.7394676 -0.89364773 0.34889197
2.7429736 -0.86828369 0.34835649
2.7464709 -0.84299612 0.34784952
2.7499564 -0.81777954 0.34737042
2.7534342 -0.79263085 0.34691939
2.7569036 -0.76754558 0.34649613
2.7603648 -0.74251944 0.34610042
2.7638159 -0.71754789 0.34573179
2.7672627 -0.69262826 0.3453908
2.7707002 -0.66775519 0.34507656
2.7741344 -0.64292604 0.34478968
2.7281725 -0.60714459 0.33840322
2.7300143 -0.58250582 0.33798581
2.7157133 -0.55462992 0.33560094
2.7372494 -0.53409636 0.33767125
2.7005384 -0.50241965 0.33258688
2.6720111 -0.47293657 0.32855079
2.6540725 -0.44582242 0.32585239
2.6586523 -0.42268175 0.32594758
2.804852 -0.4207705 0.34340647
2.8082552 -0.396162 0.3433851
2.8116577 -0.37155464 0.34339002
2.8150599 -0.3469446 0.34342119
2.8184643 -0.32232833 0.34347889
2.8218691 -0.29770184 0.34356287
2.8252769 -0.27306145 0.34367335
2.8286855 -0.24840321 0.34381014
2.8320994 -0.22372361 0.3439737
2.8355148 -0.19901848 0.34416357
2.8389337 -0.17428415 0.34438005
2.84236 -0.14951691 0.3446236
2.8457899 -0.12471265 0.34489378
2.849225 -0.099867545 0.34519082
2.8526669 -0.074977711 0.34551501
2.8561146 -0.05003915 0.34586623
2.8595698 -0.025047921 0.34624478
2.8630338 0 0.34665093
2.8665049 0.025108667 0.34708452
2.8699865 0.050282188 0.34754607
2.8734777 0.07552468 0.3480356
2.8769763 0.10084024 0.34855294
2.8804886 0.12623326 0.34909907
2.8840106 0.15170786 0.34967354
2.8875458 0.17726846 0.35027698
2.8910925 0.20291936 0.35090938
2.8327296 0.22377339 0.34405023
2.9736362 0.79988796 0.37284082
2.9776616 0.82900649 0.37424168
2.9817195 0.85834724 0.3756822
2.3058288 -1.2314128 0.33988777
2.3709722 -1.2396352 0.34787625
2.4745748 -1.2663276 0.3614358
2.5517788 -1.2777562 0.3710632
2.6358676 -1.2911109 0.3816317
2.6823239 -1.2848581 0.38671353
2.6888173 -1.2591332 0.3860448
2.6925364 -1.2322356 0.38501433
2.6962361 -1.2054791 0.38401875
2.6999178 -1.178859 0.38305771
2.7035809 -1.1523695 0.38213065
2.7072268 -1.126006 0.38123727
2.7108555 -1.0997633 0.38037708
2.7144666 -1.0736362 0.37954965
2.7180641 -1.0476211 0.37875506
2.7216465 -1.0217127 0.37799266
2.7252138 -0.99590594 0.37726209
2.72877 -0.97019774 0.37656349
2.7323103 -0.94458151 0.37589583
2.735842 -0.91905522 0.37525979
2.7393584 -0.89361209 0.37465411
2.7428672 -0.86825007 0.3740795
2.7463629 -0.84296304 0.37353492
2.7498505 -0.81774807 0.37302071
2.7533276 -0.79260015 0.3725363
2.7567956 -0.76751542 0.37208161
2.7602544 -0.74248976 0.37165639
2.7637079 -0.71751988 0.37126091
2.7671545 -0.69260114 0.3708947
2.770592 -0.66772908 0.37055728
2.7740259 -0.64290088 0.37024918
2.7279034 -0.60708469 0.36336952
2.7108321 -0.57841289 0.36040682
2.7210393 -0.55571771 0.36110288
2.7371421 -0.53407538 0.36260507
2.7000742 -0.50233328 0.35709789
2.6658988 -0.47185469 0.35201791
2.6463697 -0.44452849 0.34891164
2.6427257 -0.42014968 0.34793261
2.8047411 -0.42075384 0.36876369
2.8081465 -0.39614668 0.36874104
2.8115478 -0.37154013 0.36874619
2.8149507 -0.34693113 0.36877978
2.8183532 -0.32231563 0.3688415
2.821758 -0.29769009 0.36893171
2.825166 -0.27305073 0.36905038
2.8285758 -0.24839358 0.36919746
2.8319876 -0.22371477 0.36937281
2.8354042 -0.19901073 0.3695769
2.8388243 -0.17427742 0.36980951
2.842248 -0.14951101 0.37007073
2.8456779 -0.12470774 0.37036088
2.8491123 -0.099863589 0.37067977
2.8525538 -0.074974738 0.37102786
2.8560021 -0.050037179 0.37140512
2.8594573 -0.025046933 0.37181163
2.862921 0 0.37224776
2.8663924 0.025107682 0.37271342
2.8698738 0.05028021 0.37320906
2.8733635 0.075521685 0.37373456
2.8768649 0.10083634 0.3742905
2.8803763 0.12622835 0.37487683
2.8838954 0.15170179 0.37549338
2.8874304 0.17726138 0.37614137
2.8909779 0.20291132 0.37682056
2.8316653 0.22368932 0.36933079
2.9735181 0.79985625 0.40037143
2.9775448 0.82897389 0.40187588
2.9816027 0.85831368 0.40342283
2.3033164 -1.2300709 0.36292964
2.3725424 -1.2404562 0.37211114
2.4859691 -1.2721584 0.38813844
2.5722771 -1.2880204 0.39983702
2.6528635 -1.2994357 0.41057843
2.6822202 -1.2848085 0.41336432
2.6887128 -1.2590842 0.41264936
2.6924307 -1.2321872 0.41154772
2.6961303 -1.2054318 0.41048354
2.6998112 -1.1788124 0.40945616
2.7034736 -1.1523237 0.40846512
2.7071187 -1.1259611 0.4075101
2.710747 -1.0997193 0.40659061
2.7143607 -1.0735943 0.40570658
2.7179568 -1.0475798 0.40485701
2.7215393 -1.0216724 0.40404209
2.7251072 -0.99586701 0.4032613
2.7286623 -0.97015935 0.4025144
2.7322054 -0.94454527 0.4018012
2.7357335 -0.91901875 0.40112078
2.7392526 -0.89357758 0.4004738
2.7427583 -0.86821556 0.39985913
2.746254 -0.84292954 0.39927703
2.7497404 -0.81771529 0.39872724
2.7532172 -0.79256839 0.39820945
2.7566867 -0.76748514 0.39772364
2.7601461 -0.74246067 0.39726925
2.7635992 -0.71749163 0.39684644
2.7670453 -0.6925739 0.39645499
2.7704825 -0.66770267 0.39609426
2.7739165 -0.64287555 0.39576495
2.7277946 -0.60706043 0.38841105
2.708039 -0.5778169 0.38486257
2.7219036 -0.5558942 0.38612616
2.7370346 -0.53405446 0.38759416
2.6999638 -0.50231272 0.3817068
2.6640477 -0.47152707 0.37603083
2.6422789 -0.44384134 0.37239513
2.635534 -0.41900635 0.37091303
2.8046324 -0.42073756 0.39417738
2.8080339 -0.39613077 0.39415261
2.8114371 -0.37152547 0.39415839
2.8148384 -0.3469173 0.39419413
2.8182423 -0.32230294 0.39426032
2.8216465 -0.29767832 0.39435664
2.8250537 -0.27303988 0.39448345
2.8284631 -0.24838367 0.39464059
2.8318756 -0.22370593 0.39482817
2.8352907 -0.19900274 0.39504611
2.8387105 -0.17427044 0.39529479
2.8421361 -0.14950514 0.39557424
2.8455644 -0.12470277 0.39588419
2.8490007 -0.099859677 0.39622536
2.8524404 -0.074971758 0.39659721
2.8558903 -0.05003522 0.39700067
2.8593442 -0.025045944 0.39743507
2.8628089 0 0.39790139
2.8662794 0.025106693 0.39839903
2.8697608 0.050278232 0.39892885
2.8732505 0.075518712 0.39949057
2.8767495 0.1008323 0.40008453
2.8802602 0.12622325 0.40071118
2.8837836 0.15169592 0.40137082
2.8873177 0.17725447 0.40206337
2.8908632 0.20290327 0.40278915
2.8638232 0.22622964 0.3992824
2.9734011 0.79982477 0.42796314
2.977427 0.82894111 0.42957118
2.9814837 0.85827941 0.43122461
2.3131118 -1.2353022 0.38804251
2.3890729 -1.249099 0.39893481
2.5250018 -1.2921329 0.41972655
2.6389155 -1.3213884 0.4367215
2.6527579 -1.299384 0.43711194
2.6821153 -1.2847582 0.44007814
2.6886046 -1.2590337 0.43931654
2.6923244 -1.2321385 0.43814403
2.6960232 -1.2053839 0.43701094
2.6997039 -1.1787655 0.43591717
2.7033668 -1.1522782 0.4348622
2.7070119 -1.1259166 0.43384549
2.71064 -1.0996759 0.43286657
2.7142518 -1.0735512 0.43192512
2.7178507 -1.0475389 0.43102109
2.7214327 -1.0216323 0.43015349
2.7249997 -0.99582767 0.42932206
2.728555 -0.97012126 0.428527
2.7320969 -0.94450778 0.42776754
2.7356248 -0.91898233 0.42704317
2.7391438 -0.89354211 0.42635435
2.74265 -0.86818129 0.42570004
2.746145 -0.8428961 0.42508024
2.7496326 -0.81768328 0.42449513
2.7531097 -0.79253739 0.42394394
2.7565773 -0.76745468 0.42342648
2.7600372 -0.74243134 0.42294279
2.7634904 -0.71746343 0.42249274
2.7669346 -0.69254619 0.42207569
2.770375 -0.66767681 0.42169216
2.773807 -0.64285016 0.4213413
2.7772338 -0.61806297 0.42102334
2.7806573 -0.59331155 0.42073831
2.775156 -0.56676996 0.41913867
2.740365 -0.53470427 0.41316086
2.7511675 -0.51183891 0.41409773
2.6638935 -0.47149974 0.40032446
2.6416757 -0.44374001 0.3963863
2.6337972 -0.41873017 0.39463863
2.8045206 -0.42072079 0.41965094
2.8079224 -0.39611506 0.41962469
2.8113267 -0.37151089 0.419631
2.8147285 -0.34690374 0.41966912
2.818131 -0.32229021 0.4197394
2.8215365 -0.29766673 0.41984218
2.8249421 -0.27302912 0.41997698
2.8283525 -0.24837397 0.42014444
2.8317642 -0.22369713 0.42034402
2.8351786 -0.19899489 0.42057598
2.8385985 -0.17426357 0.42084074
2.8420227 -0.14949916 0.42113808
2.8454525 -0.12469787 0.42146832
2.8488874 -0.099855714 0.42183134
2.8523295 -0.074968845 0.42222759
2.855778 -0.050033253 0.42265695
2.8592331 -0.02504497 0.4231196
2.8626955 0 0.42361575
2.8661675 0.025105711 0.42414579
2.8696456 0.050276212 0.42470935
2.8731365 0.075515717 0.4253076
2.8766363 0.10082833 0.42594007
2.880147 0.12621829 0.42660722
2.8836694 0.1516899 0.42730939
2.8872039 0.17724749 0.42804679
2.8907511 0.2028954 0.42881972
2.863708 0.22622055 0.42508572
2.7865071 0.24469928 0.41392842
2.9732838 0.79979318 0.45562029
2.9773102 0.82890856 0.45733234
2.9813666 0.85824573 0.45909259
2.3420732 -1.2507689 0.41682783
2.6451473 -1.3536156 0.4664748
2.6489124 -1.3263941 0.46507204
2.6526535 -1.299333 0.46371284
2.6847601 -1.2860252 0.46733832
2.6884995 -1.2589844 0.46605173
2.6922185 -1.2320901 0.46480775
2.6959174 -1.2053366 0.46360573
2.6995971 -1.1787189 0.46244526
2.7032583 -1.1522321 0.46132585
2.7069046 -1.125872 0.46024746
2.7105329 -1.0996324 0.45920902
2.7141469 -1.0735097 0.45821068
2.7177413 -1.0474967 0.45725095
2.721323 -1.0215912 0.45633051
2.7248926 -0.99578857 0.45544896
2.7284467 -0.97008276 0.45460528
2.7319875 -0.94446987 0.45379943
2.735517 -0.91894603 0.45303127
2.7390361 -0.89350688 0.45230055
2.7425408 -0.86814672 0.45160624
2.746037 -0.84286296 0.45094895
2.7495239 -0.81765085 0.45032814
2.7529993 -0.79250568 0.44974315
2.7564671 -0.76742405 0.44919428
2.759928 -0.7424019 0.44868132
2.7633798 -0.71743464 0.44820365
2.7668247 -0.69251865 0.44776139
2.7702646 -0.66765022 0.44735447
2.7736969 -0.64282465 0.44698229
2.7771235 -0.61803836 0.44664496
2.7805467 -0.59328794 0.44634259
2.7839637 -0.56856871 0.44607452
2.7873785 -0.54387766 0.44584128
2.7907887 -0.51921016 0.44564214
2.6642971 -0.47157118 0.4247677
2.6435475 -0.44405445 0.42082337
2.6368656 -0.419218 0.41915902
2.8044105 -0.42070425 0.44518927
2.8078122 -0.39609954 0.44516143
2.8112137 -0.37149596 0.44516772
2.8146162 -0.34688991 0.44520828
2.818018 -0.32227728 0.44528276
2.8214247 -0.29765493 0.44539201
2.8248305 -0.2730183 0.44553503
2.8282399 -0.24836409 0.44571257
2.8316512 -0.2236882 0.44592425
2.8350675 -0.1989871 0.44617066
2.8384871 -0.17425671 0.44645146
2.8419106 -0.14949326 0.44676682
2.8453405 -0.12469295 0.44711718
2.8487761 -0.099851809 0.44750243
2.8522165 -0.074965864 0.44792253
2.8556645 -0.050031263 0.448378
2.8591187 -0.02504397 0.44886872
2.8625803 0 0.44939491
2.8660517 0.025104698 0.44995713
2.8695326 0.050274234 0.4505555
2.8730221 0.075512715 0.45118994
2.8765225 0.10082434 0.45186102
2.880033 0.1262133 0.45256874
2.8835559 0.15168394 0.45331374
2.8870893 0.17724045 0.45409587
2.8906348 0.20288724 0.45491558
2.8635948 0.22621162 0.45095471
2.867131 0.25177932 0.45184153
2.9731665 0.79976165 0.48334751
2.9771929 0.82887596 0.48516378
2.9812465 0.85821116 0.48703071
2.6656294 -1.4235619 0.50172007
2.6694798 -1.3957065 0.50012457
2.6733077 -1.3680263 0.49857756
2.6771121 -1.3405147 0.49707812
2.6808934 -1.3131655 0.49562547
2.6846523 -1.2859734 0.49421895
2.6883912 -1.2589338 0.49285832
2.6921113 -1.232041 0.49154299
2.6958108 -1.205289 0.49027202
2.6994905 -1.1786724 0.48904482
2.7031519 -1.1521866 0.48786104
2.7067966 -1.1258271 0.48672038
2.7104249 -1.0995885 0.48562223
2.7140369 -1.0734662 0.48456615
2.7176332 -1.0474551 0.48355159
2.7212155 -1.0215508 0.48257828
2.7247832 -0.99574858 0.48164576
2.7283373 -0.9700439 0.4807536
2.7318785 -0.9444322 0.47990146
2.7354078 -0.91890937 0.47908911
2.7389262 -0.89347106 0.47831628
2.7424319 -0.86811221 0.47758222
2.745928 -0.84282953 0.47688714
2.749413 -0.81761789 0.47623029
2.7528911 -0.79247451 0.47561216
2.7563596 -0.76739407 0.47503185
2.7598195 -0.74237275 0.47448924
2.7632706 -0.71740633 0.47398403
2.7667158 -0.69249141 0.47351635
2.770154 -0.66762358 0.47308579
2.7735875 -0.64279932 0.47269246
2.7770126 -0.61801368 0.47233546
2.7804358 -0.59326428 0.47201574
2.7838545 -0.56854641 0.47173253
2.7872677 -0.54385597 0.47148558
2.7906795 -0.51918983 0.47127536
2.6674323 -0.4721261 0.4497464
2.6493225 -0.44502449 0.44601861
2.6473475 -0.42088449 0.44504839
2.8042982 -0.42068741 0.47079599
2.8077004 -0.39608377 0.47076666
2.8111031 -0.37148136 0.47077355
2.8145046 -0.34687617 0.47081628
2.8179083 -0.32226473 0.47089538
2.821311 -0.29764292 0.47101024
2.8247178 -0.27300739 0.47116169
2.8281264 -0.24835411 0.4713493
2.8315382 -0.22367927 0.47157329
2.8349531 -0.19897905 0.47183365
2.8383741 -0.17424978 0.47213089
2.841799 -0.14948741 0.47246468
2.8452282 -0.12468803 0.47283506
2.8486607 -0.099847764 0.47324198
2.8521011 -0.074962839 0.47368628
2.8555484 -0.050029229 0.47416785
2.859004 -0.025042966 0.47468704
2.8624671 0 0.47524375
2.8659379 0.025103701 0.47583827
2.8694179 0.050272223 0.47647089
2.8729084 0.07550972 0.47714201
2.8764083 0.10082034 0.47785166
2.8799195 0.12620832 0.47860023
2.8834391 0.15167779 0.47938755
2.8869736 0.17723335 0.48021486
2.8905203 0.20287921 0.48108196
2.8634827 0.22620274 0.47689342
2.8670185 0.25176942 0.47783124
2.973048 0.79972982 0.51114911
2.9770737 0.82884276 0.51306975
2.9811299 0.85817754 0.51504457
2.552911 -1.9333887 0.56070411
2.6263087 -1.402563 0.52130282
2.6304038 -1.3752761 0.51970464
2.6354265 -1.3486412 0.51834309
2.6452916 -1.3245811 0.51798153
2.6567955 -1.3013619 0.51798218
2.6680963 -1.278043 0.51798296
2.6791921 -1.2546259 0.51798373
2.6900823 -1.2311125 0.51798439
2.6957016 -1.2052401 0.51701379
2.6993828 -1.1786253 0.51572001
2.7030449 -1.1521411 0.51447183
2.7066896 -1.1257825 0.51326895
2.7103167 -1.0995448 0.51211077
2.7139285 -1.0734233 0.510997
2.7175262 -1.0474138 0.50992739
2.7211065 -1.0215099 0.50890064
2.7246757 -0.9957093 0.50791758
2.7282293 -0.97000551 0.50697666
2.7317705 -0.94439489 0.50607812
2.7352993 -0.91887295 0.50522137
2.7388165 -0.8934353 0.50440621
2.7423224 -0.86807764 0.50363219
2.7458184 -0.84279591 0.50289917
2.7493036 -0.81758541 0.50220656
2.7527814 -0.79244292 0.50155467
2.756249 -0.76736325 0.50094253
2.7597084 -0.74234289 0.50037032
2.7631588 -0.71737731 0.4998374
2.7666042 -0.69246346 0.49934429
2.7700434 -0.66759688 0.49889043
2.7734754 -0.64277333 0.49847543
2.7769032 -0.61798936 0.49809948
2.7803254 -0.59324074 0.49776214
2.7837436 -0.56852382 0.49746349
2.7871568 -0.54383439 0.49720308
2.7156224 -0.50522596 0.483634
2.6845753 -0.47516036 0.47734514
2.6646707 -0.44760263 0.47309062
2.8007839 -0.44527832 0.4965449
2.8041861 -0.4206706 0.49647573
2.8075886 -0.39606795 0.49644485
2.8109906 -0.37146646 0.496452
2.8143911 -0.34686217 0.49649695
2.8177958 -0.32225189 0.49658057
2.8212008 -0.29763129 0.49670213
2.8246057 -0.27299657 0.49686155
2.8280139 -0.24834423 0.49705932
2.8314257 -0.22367038 0.49729556
2.8348403 -0.19897115 0.4975701
2.8382607 -0.17424281 0.49788344
2.8416836 -0.14948133 0.49823511
2.8451123 -0.12468296 0.49862567
2.8485465 -0.099843763 0.49905512
2.8519874 -0.074959844 0.4995237
2.8554368 -0.050027274 0.50003195
2.858891 -0.025041975 0.50057924
2.8623533 0 0.50116622
2.8658247 0.02510271 0.50179332
2.8693047 0.050270237 0.50246042
2.8727944 0.075506732 0.50316805
2.8762944 0.10081635 0.50391644
2.8798032 0.12620324 0.50470549
2.8833251 0.1516718 0.50553614
2.8868592 0.17722632 0.50640851
2.8904059 0.20287116 0.50732291
2.893965 0.22861072 0.50827962
2.8975368 0.25444943 0.50927883
2.9291921 0.78793287 0.53109986
2.933161 0.81661707 0.53309596
2.937156 0.84551877 0.53514755
2.9411843 0.87464666 0.53725678
2.5528083 -1.9333109 0.58979315
2.6262028 -1.4025065 0.54834777
2.6299987 -1.3750643 0.54660445
2.6337693 -1.3477931 0.54491359
2.6375172 -1.3206882 0.54327476
2.6412442 -1.2937443 0.54168737
2.6449471 -1.2669543 0.54015011
2.648632 -1.2403151 0.53866327
2.6522956 -1.2138194 0.53722537
2.6559372 -1.1874616 0.53583562
2.659564 -1.1612394 0.53449476
2.6631727 -1.135146 0.53320122
2.6667638 -1.1091764 0.53195459
2.6703379 -1.0833257 0.53075433
2.6738966 -1.0575897 0.52960002
2.6774402 -1.0319635 0.52849132
2.680968 -1.0064418 0.52742732
2.6844833 -0.9810214 0.52640814
2.6879849 -0.95569682 0.52543306
2.6914728 -0.93046361 0.52450156
2.6949525 -0.90531915 0.52361423
2.6984158 -0.88025612 0.52276897
2.7018714 -0.85527289 0.52196705
2.7053154 -0.83036399 0.52120727
2.7087512 -0.80552596 0.52048981
2.7121751 -0.78075355 0.51981372
2.7157583 -0.75609034 0.51921123
2.719645 -0.73156613 0.5187093
2.7234921 -0.70707899 0.51824188
2.7273002 -0.68262589 0.51780885
2.73107 -0.65820408 0.5174101
2.736372 -0.63417429 0.51734233
2.7418251 -0.61018288 0.51734298
2.7470679 -0.58614457 0.51734364
2.7521005 -0.56206131 0.51734436
2.7569213 -0.53793478 0.51734495
2.7615311 -0.51376694 0.51734567
2.7659287 -0.48955962 0.51734632
2.7701142 -0.46531469 0.51734704
2.7740874 -0.44103402 0.51734769
2.777848 -0.41671947 0.51734841
2.781395 -0.39237282 0.51734906
2.7847285 -0.36799601 0.51734972
2.7878487 -0.34359092 0.51735044
2.7907553 -0.31915945 0.51735115
2.7934475 -0.29470336 0.51735187
2.7959254 -0.27022463 0.51735252
2.7981887 -0.2457251 0.51735324
2.8002372 -0.22120664 0.51735389
2.8020709 -0.19667113 0.51735455
2.80369 -0.1721205 0.51735526
2.805094 -0.1475566 0.51735598
2.8062825 -0.12298129 0.51735669
2.8083413 -0.098434538 0.51755738
2.8113303 -0.073891245 0.51796913
2.8142915 -0.049306411 0.51841527
2.8172245 -0.024677005 0.5188958
2.8201318 0 0.51941139
2.8235519 0.024732428 0.52006119
2.8269808 0.049528725 0.52075273
2.8304188 0.074392952 0.52148604
2.8338652 0.099329174 0.52226132
2.8373234 0.12434161 0.52307928
2.8407936 0.14943451 0.52394021
2.8442755 0.17461208 0.52484435
2.8477702 0.19987866 0.52579218
2.8512747 0.22523838 0.52678329
2.8547957 0.25069609 0.52781922
2.9290764 0.78790176 0.55865347
2.933042 0.81658393 0.56075251
2.9370387 0.84548503 0.56291091
2.9410663 0.87461156 0.56512946
2.5527067 -1.9332339 0.61897475
2.5570884 -1.9015397 0.61597478
2.6260989 -1.4024509 0.57547885
2.6298938 -1.3750094 0.57364911
2.6336641 -1.3477392 0.5718745
2.6374114 -1.3206352 0.57015449
2.6411371 -1.2936919 0.56848836
2.6448414 -1.2669036 0.56687534
2.6485243 -1.2402645 0.56531453
2.652189 -1.2137706 0.56380582
2.6558332 -1.187415 0.56234789
2.6594572 -1.1611928 0.56094009
2.6630657 -1.1351004 0.55958253
2.6666558 -1.1091315 0.55827409
2.6702316 -1.0832826 0.55701476
2.6737897 -1.0575475 0.55580336
2.6773324 -1.0319219 0.55463952
2.6808605 -1.0064014 0.55352294
2.6843762 -0.98098218 0.55245352
2.6878779 -0.95565879 0.55143028
2.6913667 -0.93042696 0.55045289
2.6948433 -0.90528244 0.54952103
2.6983082 -0.88022101 0.54863435
2.7017627 -0.8552385 0.54779255
2.7052066 -0.83033055 0.54699516
2.708642 -0.80549347 0.54624218
2.7120667 -0.78072238 0.54553282
2.7154832 -0.75601375 0.54486704
2.7188921 -0.73136353 0.54424477
2.7222915 -0.70676726 0.54366517
2.7256863 -0.68222201 0.54312885
2.7290742 -0.65772307 0.54263514
2.7324553 -0.63326657 0.5421837
2.7358322 -0.60884917 0.54177475
2.7392035 -0.58446652 0.54140776
2.7425694 -0.5601148 0.54108256
2.7459326 -0.53579062 0.54079944
2.7492938 -0.51149029 0.54055828
2.7526522 -0.48720974 0.54035878
2.7560055 -0.46294475 0.54020029
2.7593601 -0.4386926 0.54008389
2.7627113 -0.41444874 0.54000854
2.7660642 -0.39021009 0.53997511
2.7694149 -0.36597234 0.53998274
2.7727659 -0.34173203 0.54003173
2.7761197 -0.31748566 0.54012257
2.7794733 -0.29322913 0.54025465
2.7828283 -0.26895884 0.5404281
2.7861865 -0.24467112 0.54064333
2.7895472 -0.22036217 0.54090017
2.7929144 -0.19602846 0.54119933
2.7962828 -0.17166576 0.54153985
2.7996557 -0.14727053 0.54192251
2.8030329 -0.12283888 0.54234713
2.8064172 -0.098367095 0.54281437
2.8098073 -0.073851213 0.54332417
2.8132038 -0.049287353 0.54387659
2.8166072 -0.024671597 0.54447192
2.8200188 0 0.54511046
2.8234386 0.024731435 0.54579246
2.8268654 0.049526703 0.54651779
2.8303041 0.074389935 0.54728758
2.8337526 0.099325217 0.5481016
2.8372114 0.1243367 0.54896015
2.8406808 0.14942858 0.54986364
2.8441627 0.17460515 0.55081254
2.8476541 0.19987051 0.55180657
2.8511612 0.22522943 0.55284727
2.854682 0.25068611 0.55393445
2.9250221 0.75940067 0.58415222
2.9289594 0.78787023 0.58629423
2.932925 0.81655139 0.58849722
2.9369204 0.845451 0.5907622
2.9409478 0.87457639 0.59309047
2.5526028 -1.9331552 0.64825302
2.5569847 -1.9014626 0.64511126
2.5876031 -1.8892597 0.6486361
2.6298625 -1.8850229 0.65506518
2.6342299 -1.8534424 0.65208417
2.638557 -1.822145 0.6491794
2.6259942 -1.402395 0.60270023
2.6297886 -1.3749543 0.60078382
2.6335573 -1.3476846 0.59892499
2.6373041 -1.3205816 0.59712356
2.6410296 -1.2936393 0.59537864
2.6447344 -1.2668524 0.59368938
2.6484182 -1.2402149 0.59205502
2.652081 -1.2137213 0.59047455
2.6557243 -1.1873665 0.58894747
2.6593499 -1.1611458 0.58747339
2.6629586 -1.1350547 0.58605176
2.6665494 -1.1090872 0.58468163
2.6701233 -1.0832387 0.5833624
2.6736813 -1.0575045 0.5820936
2.6772251 -1.0318806 0.58087504
2.6807528 -1.0063611 0.57970566
2.6842675 -0.98094255 0.57858539
2.6877694 -0.95562017 0.57751375
2.6912572 -0.93038911 0.57649004
2.6947353 -0.9052462 0.57551444
2.6982005 -0.88018584 0.57458586
2.7016542 -0.85520416 0.57370412
2.7050989 -0.83029753 0.57286924
2.7085335 -0.80546123 0.57208049
2.7119563 -0.78069061 0.57133716
2.7153733 -0.75598311 0.57064009
2.7187815 -0.73133379 0.56998825
2.7221837 -0.70673925 0.56938183
2.7255762 -0.68219441 0.5688197
2.7289631 -0.65769631 0.56830245
2.7323442 -0.63324088 0.56782967
2.7357209 -0.60882437 0.56740135
2.7390919 -0.58444273 0.56701702
2.7424588 -0.56009221 0.56667668
2.7458229 -0.53576922 0.56638032
2.7491829 -0.51146966 0.56612754
2.7525408 -0.48719001 0.56591856
2.7558947 -0.46292615 0.56575274
2.7592485 -0.43867487 0.56563067
2.7625997 -0.41443199 0.56555182
2.7659519 -0.39019424 0.56551665
2.7693019 -0.36595741 0.56552452
2.7726555 -0.34171841 0.56557643
2.7760065 -0.31747273 0.56567103
2.7793608 -0.29321727 0.56580949
2.782717 -0.26894805 0.5659914
2.7860754 -0.24466136 0.56621689
2.7894354 -0.22035334 0.56648576
2.7928009 -0.1960205 0.56679881
2.7961688 -0.17165877 0.56715536
2.7995429 -0.14726458 0.56755632
2.8029215 -0.122834 0.56800139
2.8063052 -0.098363176 0.56849068
2.809695 -0.073848262 0.5690245
2.8130906 -0.049285371 0.56960291
2.816494 -0.024670605 0.57022637
2.8199162 0 0.57089734
2.8233263 0.024730453 0.57160968
2.82675 0.049524684 0.57236868
2.8301876 0.07438688 0.57317472
2.8336382 0.099321209 0.57402766
2.8370955 0.12433163 0.57492661
2.8405688 0.14942268 0.57587361
2.8440459 0.17459798 0.57686639
2.8475432 0.19986273 0.57790869
2.8510466 0.22522035 0.57899791
2.8545649 0.25067583 0.58013606
2.9249058 0.75937045 0.61178392
2.9288414 0.78783852 0.61402696
2.9328074 0.81651866 0.61633426
2.9368031 0.84541726 0.61870646
2.940829 0.87454104 0.62114459
2.5525005 -1.9330778 0.67763406
2.5568819 -1.9013861 0.67434978
2.5874999 -1.8891842 0.6780346
2.6297567 -1.8849469 0.68475485
2.6341233 -1.8533674 0.68163854
2.6384513 -1.822072 0.6786024
2.6427402 -1.7910511 0.67564458
2.6469929 -1.7602974 0.672764
2.5864506 -1.6875499 0.65359437
2.5905292 -1.6580439 0.65093005
2.6031508 -1.6341587 0.65047979
2.6636548 -1.6397922 0.66198409
2.6677382 -1.6102552 0.65946823
2.671793 -1.5809408 0.65702212
2.6758158 -1.5518397 0.6546436
2.6798105 -1.5229466 0.65233225
2.6837785 -1.4942551 0.65008706
2.6220691 -1.4299556 0.63208103
2.6258874 -1.402338 0.63001621
2.6446068 -1.3827019 0.63157737
2.6335585 -1.3476851 0.62609565
2.6371977 -1.3205283 0.62418699
2.6409245 -1.2935878 0.62236333
2.644628 -1.2668015 0.6205973
2.6483102 -1.2401644 0.6188885
2.6519737 -1.213672 0.61723655
2.6556172 -1.1873184 0.61564034
2.6592436 -1.1610994 0.61409974
2.6628509 -1.1350088 0.61261338
2.6664422 -1.1090426 0.61118126
2.6700153 -1.0831949 0.60980207
2.673573 -1.0574617 0.6084758
2.6771166 -1.0318388 0.60720199
2.680644 -1.0063202 0.6059795
2.6841593 -0.98090297 0.60480869
2.6876609 -0.95558167 0.60368848
2.6911488 -0.93035161 0.60261834
2.6946254 -0.9052093 0.60159826
2.6980901 -0.88014984 0.60062748
2.701544 -0.8551693 0.59970587
2.7049882 -0.8302635 0.59883302
2.7084227 -0.80542821 0.59800857
2.7118471 -0.78065914 0.59723198
2.7152643 -0.75595284 0.59650338
2.718673 -0.73130465 0.5958221
2.7220726 -0.70671046 0.59518766
2.7254655 -0.6821667 0.5946002
2.7288537 -0.6576699 0.59405977
2.7322345 -0.63321543 0.59356558
2.7356102 -0.60879976 0.59311765
2.7389815 -0.58441919 0.59271598
2.7423484 -0.56006962 0.5923602
2.7457113 -0.53574747 0.59205025
2.7490723 -0.51144904 0.59178627
2.75243 -0.4871704 0.59156775
2.7557831 -0.46290737 0.59139425
2.759136 -0.43865699 0.59126657
2.7624891 -0.41441542 0.59118456
2.7658398 -0.39017844 0.59114754
2.769191 -0.36594275 0.59115601
2.7725317 -0.34170318 0.59120756
2.7758918 -0.31745961 0.59130841
2.7792478 -0.29320535 0.59145349
2.782604 -0.26893714 0.59164369
2.785964 -0.2446516 0.59187979
2.7893252 -0.22034465 0.59216112
2.7926848 -0.19601233 0.5924871
2.796052 -0.1716516 0.59285975
2.7994268 -0.14725848 0.59327906
2.8028054 -0.12282892 0.59374428
2.8061893 -0.098359108 0.59425581
2.8095794 -0.073845223 0.59481394
2.8129733 -0.049283314 0.59541821
2.8163795 -0.024669603 0.59607059
2.8197889 0 0.59676933
2.823209 0.024729425 0.59751606
2.8266411 0.049522776 0.59831125
2.8300762 0.074383944 0.59915328
2.8335245 0.09931723 0.60004449
2.8369837 0.12432673 0.60098463
2.8404517 0.14941652 0.60197341
2.8439317 0.17459098 0.60301191
2.8474262 0.19985451 0.60410082
2.8509328 0.22521137 0.60524011
2.8544512 0.25066584 0.60642993
2.8579855 0.27622271 0.6076715
2.9860818 0.6920464 0.64871275
2.9900329 0.72061568 0.65091741
2.9940112 0.74938196 0.65318733
2.9980166 0.7783516 0.65552348
3.0005748 0.80713433 0.65760344
2.9341788 0.81690049 0.64459568
2.9366839 0.84538293 0.64674795
2.9407103 0.87450576 0.64929676
2.5523977 -1.9329998 0.70712233
2.5567782 -1.901309 0.703695
2.5873966 -1.8891089 0.70754057
2.6296504 -1.8848708 0.71455294
2.6340165 -1.8532922 0.71130091
2.6383429 -1.8219972 0.70813233
2.642633 -1.7909783 0.70504612
2.646884 -1.7602249 0.70203972
2.5863454 -1.6874814 0.68203634
2.5904245 -1.6579769 0.6792562
2.6030474 -1.6340938 0.67878681
2.6635473 -1.639726 0.69079131
2.6676309 -1.6101905 0.68816608
2.6716845 -1.5808767 0.68561327
2.6757078 -1.551777 0.6831314
2.6797023 -1.5228851 0.68071944
2.6836705 -1.494195 0.67837667
2.6219625 -1.4298974 0.65958679
2.6257799 -1.4022807 0.65743196
2.6445019 -1.382647 0.65906185
2.6992769 -1.3813156 0.66967177
2.7031183 -1.3535367 0.66765779
2.7069356 -1.3259217 0.66570646
2.7107337 -1.2984667 0.66381794
2.7145076 -1.2711637 0.66199005
2.7182622 -1.2440089 0.66022295
2.6555104 -1.1872708 0.64243102
2.6591353 -1.1610522 0.64082301
2.6627426 -1.1349627 0.63927203
2.7330923 -1.1367642 0.65374595
2.7367563 -1.110271 0.65227103
2.7404022 -1.0838943 0.65085226
2.7440352 -1.0576311 0.64948994
2.7476506 -1.0314747 0.64818227
2.7512538 -1.0054221 0.64692992
2.754842 -0.97946751 0.64573151
2.691041 -0.93031436 0.62884235
2.6945162 -0.90517265 0.62777764
2.697983 -0.88011485 0.62676513
2.7018771 -0.85527468 0.62590539
2.7048821 -0.83023095 0.62489289
2.7083123 -0.80539542 0.6240316
2.7117379 -0.78062773 0.62322146
2.7151549 -0.75592232 0.62246114
2.7185614 -0.7312746 0.62174976
2.721962 -0.70668173 0.62108797
2.7253547 -0.68213898 0.62047493
2.7287412 -0.65764278 0.61991066
2.7321227 -0.6331895 0.61939508
2.7355006 -0.60877538 0.61892825
2.7388711 -0.58439559 0.61850893
2.7422416 -0.56004786 0.61813855
2.7455981 -0.53572536 0.61781365
2.7489605 -0.51142824 0.61753851
2.7523198 -0.48715091 0.61731094
2.7556734 -0.46288896 0.61713004
2.7590213 -0.43863875 0.61699569
2.7623775 -0.4143987 0.61691082
2.7657299 -0.39016294 0.61687255
2.7690778 -0.36592782 0.61688077
2.7724335 -0.34169108 0.61693788
2.7757771 -0.3174465 0.61703944
2.7791326 -0.29319319 0.61719078
2.7824929 -0.26892641 0.61739022
2.7858503 -0.24464159 0.61763602
2.7892089 -0.22033544 0.61792904
2.7925744 -0.1960046 0.61827058
2.795943 -0.17164491 0.61865979
2.7993155 -0.14725263 0.61909688
2.8026931 -0.12282399 0.61958212
2.8060753 -0.098355114 0.62011558
2.809464 -0.07384219 0.62069774
2.8128617 -0.049281359 0.62132919
2.8162644 -0.024668595 0.62200922
2.8196766 0 0.6227389
2.8230953 0.024728429 0.62351787
2.8265228 0.049520705 0.62434679
2.8299596 0.07438089 0.62522584
2.8334103 0.099313222 0.62615633
2.8368659 0.12432157 0.62713659
2.9114516 0.15315133 0.64389688
2.915019 0.17895508 0.64500779
2.9185991 0.20484999 0.64617217
2.9221938 0.23084067 0.6473909
2.925802 0.25693154 0.64866394
2.9294231 0.28312713 0.64999169
2.9028301 0.30624306 0.64466161
2.8649814 0.32764819 0.63686907
2.8685608 0.35353836 0.63832867
2.8721578 0.37954962 0.63984436
2.9477744 0.41584408 0.65747607
2.9514971 0.44276947 0.65914607
2.95524 0.4698343 0.66087574
2.959002 0.49704346 0.66266525
2.9627862 0.52440274 0.66451591
2.9665897 0.5519169 0.66642767
2.8983898 0.56553829 0.6521948
2.9016163 0.59259689 0.65406376
2.905395 0.61992699 0.6561144
2.9820371 0.66364115 0.67470902
2.9859617 0.69201857 0.67694253
2.9899108 0.72058624 0.67924273
2.9938896 0.7493515 0.6816116
2.9978936 0.77831966 0.68404913
3.0004518 0.80710119 0.68621963
2.9340589 0.81686705 0.67264587
2.9365656 0.84534883 0.67489219
2.9405913 0.87447035 0.67755181
2.5522921 -1.9329199 0.73672247
2.556675 -1.9012322 0.73315239
2.5872929 -1.8890332 0.73715925
2.6295424 -1.8847934 0.7444644
2.6339104 -1.8532176 0.74107677
2.6382368 -1.8219239 0.73777556
2.6425252 -1.7909052 0.73455977
2.6467774 -1.7601541 0.73142797
2.5862389 -1.6874118 0.71058649
2.5903187 -1.6579092 0.70769024
2.6029427 -1.6340281 0.70720166
2.663439 -1.6396594 0.71970838
2.667522 -1.6101247 0.71697313
2.6715758 -1.5808125 0.71431357
2.6755981 -1.5517135 0.71172756
2.6795936 -1.5228232 0.70921493
2.6835604 -1.4941337 0.70677382
2.6218548 -1.4298388 0.68719733
2.6256738 -1.4022239 0.68495274
2.6443965 -1.382592 0.68665129
2.6991663 -1.3812591 0.69770455
2.7030079 -1.3534815 0.69560641
2.7068264 -1.3258682 0.69357371
2.7106223 -1.2984134 0.69160557
2.7143972 -1.2711118 0.68970144
2.7181516 -1.2439584 0.68786043
2.6554019 -1.1872222 0.66932356
2.6590285 -1.1610055 0.66764861
2.6626348 -1.1349168 0.66603255
2.732981 -1.1367179 0.68111223
2.7366436 -1.1102252 0.67957532
2.7402921 -1.0838507 0.67809772
2.7439222 -1.0575875 0.6766777
2.7475376 -1.0314323 0.67531538
2.7511413 -1.0053809 0.67401069
2.7547307 -0.97942787 0.67276245
2.6909316 -0.93027651 0.65516621
2.694407 -0.90513593 0.65405697
2.6978719 -0.88007867 0.65300167
2.768959 -0.87650943 0.66832387
2.7724907 -0.85098261 0.6673516
2.77601 -0.82552737 0.66643256
2.7795193 -0.8001399 0.66556692
2.7830219 -0.77481711 0.66475499
2.7865157 -0.74955386 0.6639958
2.7899997 -0.7243458 0.66328865
2.7252443 -0.68211132 0.64644861
2.7286305 -0.6576162 0.64586073
2.7320127 -0.63316405 0.64532375
2.8038762 -0.62399215 0.66098207
2.8073311 -0.59900296 0.66053432
2.8107836 -0.57404613 0.66013819
2.8142302 -0.54911697 0.65979272
2.8176734 -0.52421194 0.65949816
2.8211153 -0.49932745 0.65925473
2.8245537 -0.47445926 0.65906179
2.7589123 -0.43862143 0.64282429
2.7622643 -0.41438165 0.64273494
2.7656157 -0.39014682 0.64269495
2.8382936 -0.37507451 0.6587956
2.8417301 -0.35023159 0.65885592
2.8451655 -0.32538196 0.65896636
2.8486032 -0.30052221 0.65912759
2.8520422 -0.2756483 0.65933937
2.8554847 -0.25075659 0.65960211
2.8589296 -0.22584309 0.65991563
2.8385103 -0.19922873 0.65477437
2.7958279 -0.17163783 0.644557
2.7992027 -0.1472467 0.64501297
2.8025801 -0.12281904 0.6455186
2.8762174 -0.10081365 0.66225064
2.8796923 -0.075688027 0.66287267
2.8831718 -0.050513193 0.66354632
2.8866611 -0.025285222 0.66427284
2.8901567 0 0.66505176
2.8936622 0.025346547 0.66588396
2.8911996 0.050653841 0.66539383
2.8298473 0.074377932 0.6513989
2.8332927 0.099309102 0.65236717
2.8367519 0.12431657 0.65338933
2.9113331 0.1531451 0.67085087
2.9148998 0.17894776 0.67200816
2.9184811 0.2048417 0.67322165
2.922075 0.2308313 0.67449123
2.9256816 0.25692099 0.67581725
2.9293051 0.28311571 0.67720109
2.9027085 0.30623022 0.67164683
2.8648653 0.3276349 0.66352898
2.8684447 0.35352403 0.66504973
2.8720403 0.37953407 0.6666286
2.947654 0.41582707 0.68499839
2.9513781 0.44275162 0.68673873
2.9551198 0.46981519 0.68854058
2.958883 0.49702346 0.69040525
2.9626646 0.52438122 0.6923328
2.9664693 0.55189449 0.69432491
2.8982711 0.5655151 0.67949599
2.9014983 0.59257281 0.68144339
2.9052763 0.61990166 0.68357974
