# .PCD v0.7 - Point Cloud Data file format
VERSION 0.7
FIELDS x y z
SIZE 4 4 4
TYPE F F F
COUNT 1 1 1
WIDTH 627
HEIGHT 1
VIEWPOINT 0 0 0 1 0 0 0
POINTS 627
DATA ascii
3.8280697 0.033531334 -0.65765047
3.8276289 0.067060091 -0.65765041
3.8268943 0.10058369 -0.65765035
3.8258662 0.13409957 -0.65765029
3.8245444 0.16760516 -0.65765023
3.8229294 0.20109788 -0.65765017
3.8210211 0.23457517 -0.65765011
3.8188195 0.26803446 -0.65765005
3.8661075 0.10161435 -0.62937659
3.810575 0.13356361 -0.62050289
3.3779531 -1.2680917 -0.55460578
3.3829503 -1.2362701 -0.55362707
3.3295813 -1.1838125 -0.54317534
3.4552679 -1.1945137 -0.56195086
3.843349 0.10101617 -0.59096485
3.7956724 0.16633989 -0.58399248
3.8155119 0.2007077 -0.58729285
3.8322194 0.23526265 -0.59015906
3.3090222 -1.308797 -0.51493317
3.3157837 -1.2779996 -0.51422364
3.3225889 -1.2473079 -0.51356488
3.3275006 -1.2160065 -0.51265806
3.288609 -1.1692451 -0.50506884
3.4551415 -1.19447 -0.52901793
3.8431926 0.10101206 -0.55632925
3.7246766 0.1305528 -0.53931808
3.6507239 0.15998772 -0.52879268
3.7165017 0.19549946 -0.53854769
3.7291758 0.22893673 -0.54065412
3.2707005 -1.2936399 -0.47738522
3.2776341 -1.2632957 -0.47676381
3.2845914 -1.2330436 -0.47618654
3.2886815 -1.2018204 -0.47523504
3.2589617 -1.1587042 -0.46945569
3.7245255 0.13054751 -0.50582975
3.6306255 0.15910694 -0.49324751
3.6570861 0.19237402 -0.49705225
3.673645 0.22552764 -0.49955216
3.6838615 0.25856206 -0.50123018
3.6942325 0.29182839 -0.5029698
3.2417624 -1.2821941 -0.44193116
3.2487862 -1.2521769 -0.44137651
3.2558229 -1.2222438 -0.44086108
3.2583795 -1.1907468 -0.43977809
3.2362533 -1.1506304 -0.43541473
3.4548898 -1.194383 -0.46340534
3.7243748 0.13054222 -0.47242415
3.6155872 0.15844791 -0.45878327
3.5822048 0.18843503 -0.45473933
3.6340835 0.22309895 -0.46155539
3.6438117 0.25575104 -0.4630577
3.6534452 0.28860638 -0.46458539
3.2189872 -1.2731861 -0.40788463
3.2260664 -1.2434199 -0.40738592
3.2331507 -1.2137325 -0.40692237
3.2340004 -1.1818377 -0.40571088
3.218349 -1.1442646 -0.40247452
3.4547644 -1.1943396 -0.43071491
3.612747 0.15832344 -0.42609939
3.5567892 0.18709809 -0.41967672
3.6033494 0.22121216 -0.42538282
3.6132991 0.25360945 -0.42680329
3.6224601 0.28615868 -0.42816502
3.2007446 -1.2659707 -0.37487051
3.2078607 -1.236403 -0.37442115
3.2148931 -1.2068785 -0.37399372
3.2141652 -1.174589 -0.37269786
3.2040014 -1.1391634 -0.3703481
3.4546392 -1.1942964 -0.39809462
3.7240746 0.1305317 -0.40583906
3.6126015 0.15831707 -0.39382705
3.5397253 0.18620047 -0.38604546
3.5791802 0.2197284 -0.39054337
3.5892849 0.25192395 -0.39187169
3.59811 0.28423515 -0.39309195
3.1860797 -1.2601703 -0.34264961
3.1932228 -1.2307611 -0.34224525
3.2000921 -1.2013222 -0.34184057
3.1976762 -1.1685632 -0.34047604
3.192935 -1.1352288 -0.3388994
3.4545143 -1.1942532 -0.36553922
3.7239249 0.13052645 -0.37264881
3.6124566 0.15831071 -0.36161917
3.5283804 0.18560369 -0.35335207
3.557981 0.21842696 -0.3564944
3.5701621 0.25058174 -0.35792106
3.5787354 0.28270462 -0.35901505
3.5873821 0.31502873 -0.36014548
3.0517445 -1.2380581 -0.30008772
3.0986438 -1.2255874 -0.3036322
3.1056762 -1.1970181 -0.30328226
3.1316328 -1.1756225 -0.30479971
3.1841867 -1.1636336 -0.30891085
3.1848769 -1.1323638 -0.30800375
3.4543898 -1.1942102 -0.33304346
3.7237754 0.13052121 -0.33951962
3.6123116 0.15830436 -0.32947057
3.524328 0.18539052 -0.32158157
3.539134 0.21726993 -0.3230938
3.5078621 0.24620906 -0.32042354
3.4907548 0.27575454 -0.3190693
3.4996948 0.3073284 -0.32012022
3.019129 -1.2248265 -0.26797146
3.0923123 -1.2230831 -0.27350566
3.099355 -1.1945817 -0.27319258
3.1315193 -1.1755799 -0.27510953
3.1730499 -1.1595638 -0.27785507
3.1831088 -1.1317352 -0.27785718
3.4542654 -1.1941671 -0.30060214
3.6121669 0.15829802 -0.2973761
3.5241826 0.18538287 -0.29025522
3.5153339 0.21580882 -0.289671
3.5076911 0.24619704 -0.28920785
3.4135725 0.26965749 -0.28163174
3.4762433 0.305269 -0.28701189
3.4479921 0.33324653 -0.28490946
2.9953175 -1.2151663 -0.23721844
3.0877013 -1.2212594 -0.24367836
3.0947573 -1.1928096 -0.2434013
3.1314051 -1.175537 -0.24546438
3.1649933 -1.1566195 -0.24729364
3.1829913 -1.1316934 -0.24791585
3.6120226 0.1582917 -0.26533064
3.5180292 0.18505919 -0.25853527
3.4989188 0.21480109 -0.25725928
3.5075524 0.24618731 -0.25804269
3.4134343 0.26964656 -0.25128278
3.4698257 0.30470544 -0.25562075
3.4478555 0.33323333 -0.25420749
2.9676452 -1.2039399 -0.20668858
3.0847213 -1.2200807 -0.21409008
2.9808609 -1.1489106 -0.20617545
3.0057943 -1.1283823 -0.20720841
3.1594377 -1.1545893 -0.21709451
3.1823723 -1.1314733 -0.21798106
3.5289595 -1.1854882 -0.2402615
3.5118148 0.18473229 -0.22696079
3.4910986 0.21432102 -0.22573464
3.5074127 0.24617749 -0.22692022
3.4132996 0.26963592 -0.22097568
3.3515666 0.2943204 -0.21713768
3.4477184 0.33322009 -0.22354759
3.3681626 0.35533473 -0.21858267
2.9640996 -1.2634125 -0.1794723
2.9569542 -1.2298741 -0.17838052
2.9536524 -1.1982633 -0.17754136
2.9770916 -1.1775105 -0.17832345
2.9672227 -1.1436541 -0.17712547
2.981329 -1.1191981 -0.17737554
2.9974926 -1.095408 -0.17775951
3.0042617 -1.0681472 -0.17759927
3.0110221 -1.0409344 -0.1774531
3.0177732 -1.0137647 -0.17732084
3.0245163 -0.98663402 -0.17720245
3.0312524 -0.95953792 -0.17709789
3.0379839 -0.93247253 -0.17700717
3.0447102 -0.90543312 -0.17693019
3.0514314 -0.87841529 -0.17686686
3.0581529 -0.85141587 -0.17681739
3.0648704 -0.82442939 -0.17678148
3.0715878 -0.79745233 -0.17675926
3.078306 -0.77048039 -0.1767507
3.085027 -0.74350977 -0.17675589
3.0917494 -0.71653563 -0.17677467
3.0984747 -0.68955392 -0.17680706
3.1052055 -0.6625607 -0.17685318
3.1119444 -0.63555223 -0.17691314
3.1186876 -0.60852313 -0.17698668
3.1254392 -0.58146995 -0.17707399
3.1321995 -0.55438823 -0.17717507
3.1389704 -0.52727389 -0.17729002
3.2006671 -0.28106907 -0.17896311
3.207653 -0.25339073 -0.17922275
3.214663 -0.22563006 -0.17949711
3.2216992 -0.19778238 -0.17978635
3.2287633 -0.16984291 -0.18009064
3.2358563 -0.14180675 -0.18041006
3.2429802 -0.11366896 -0.18074478
3.2501338 -0.085424475 -0.18109484
3.2573199 -0.057068273 -0.18146044
3.2645409 -0.028595198 -0.18184178
3.2718194 0 -0.1822402
3.2791536 0.028723193 -0.18265572
3.2865553 0.057580475 -0.18308909
3.2940719 0.086579323 -0.18354304
3.3016357 0.11572489 -0.1840139
3.3092477 0.14502302 -0.18450187
3.3169105 0.17447974 -0.18500721
3.3246245 0.20410104 -0.18553008
3.3323929 0.23389326 -0.18607078
3.331784 0.26319653 -0.18615837
3.3282683 0.29227445 -0.18609785
3.3563271 0.32438716 -0.18781839
3.3425326 0.35263079 -0.18721212
2.9601357 -1.2008935 -0.14972426
2.9901755 -1.1826856 -0.15071391
2.97403 -1.1462778 -0.14938831
2.9896784 -1.1223325 -0.14967479
3.0118203 -1.1006439 -0.15029487
3.0188987 -1.0733511 -0.15017316
3.025944 -1.046093 -0.15006207
3.0329571 -1.0188655 -0.14996152
3.0399523 -0.99166942 -0.14987215
3.0469739 -0.96451449 -0.14979605
3.0540602 -0.93740696 -0.14973502
3.0610924 -0.91030484 -0.14968312
3.0680747 -0.88320637 -0.1496405
3.0750043 -0.85610747 -0.14960699
3.0818861 -0.82900649 -0.14958279
3.0887172 -0.80189949 -0.14956768
3.0955009 -0.77478427 -0.14956181
3.1022358 -0.74765724 -0.14956504
3.108927 -0.72051668 -0.14957763
3.1155694 -0.69335824 -0.14959925
3.1221666 -0.66617972 -0.14963011
3.1287181 -0.63897794 -0.14967012
3.1352267 -0.6117503 -0.14971939
3.141691 -0.58449352 -0.14977784
3.1482844 -0.55723524 -0.14985374
3.154876 -0.52994573 -0.14994079
3.2135961 -0.28220445 -0.15120101
3.2200813 -0.25437251 -0.1513955
3.2265592 -0.22646502 -0.15160097
3.2330329 -0.19847816 -0.15181763
3.2394993 -0.17040767 -0.15204537
3.2461381 -0.14225733 -0.15229262
3.2528105 -0.11401353 -0.15255296
3.2594905 -0.085670404 -0.15282519
3.2661805 -0.05722351 -0.15310949
3.2728777 -0.028668221 -0.15340577
3.2795873 0 -0.15371437
3.286309 0.028785871 -0.15403531
3.2930439 0.057694156 -0.15436876
3.2997923 0.086729676 -0.15471479
3.30656 0.11589749 -0.15507375
3.3134012 0.14520505 -0.15544829
3.3203988 0.17466323 -0.15584238
3.3274221 0.20427279 -0.15624999
3.3344729 0.23403925 -0.15667135
3.3328738 0.26328263 -0.15669855
3.3289688 0.29233596 -0.15662934
3.3557236 0.32432884 -0.15801577
3.3426223 0.3526403 -0.15753826
3.380151 0.38656455 -0.15946046
2.9822586 -1.2098684 -0.12244907
3.0213978 -1.1950347 -0.12362155
2.9962575 -1.1548449 -0.12217435
3.1309383 -1.1753618 -0.12724137
3.1563137 -1.1534477 -0.12785712
3.1795905 -1.1304842 -0.12839396
3.4536455 -1.1939528 -0.13903286
3.5041411 -1.177151 -0.14064516
3.5383213 -1.1542435 -0.14160581
3.5719371 -1.1306908 -0.14254931
3.5799022 -1.0988078 -0.1424776
3.5878577 -1.0669539 -0.14241681
3.5958047 -1.0351239 -0.14236689
3.6037443 -1.0033132 -0.14232782
3.6116765 -0.97151655 -0.14229955
3.6196058 -0.93972993 -0.14228219
3.0572319 -0.68037546 -0.11916538
3.0801497 -0.65721452 -0.11982968
3.1155281 -0.63628411 -0.12098457
3.1476307 -0.61417055 -0.12201761
3.1604333 -0.58798039 -0.12230956
3.1672225 -0.56058723 -0.12237757
3.1740277 -0.53316271 -0.12245537
3.1876898 -0.47820196 -0.12264041
3.2152541 -0.36770645 -0.12312943
3.2222028 -0.33993626 -0.12327677
3.2291777 -0.31209823 -0.1234343
3.2361791 -0.28418759 -0.12360203
3.2273145 -0.25494388 -0.12317343
3.2111456 -0.22538318 -0.12247629
3.1928065 -0.19600864 -0.12170666
3.1850615 -0.16754405 -0.12135083
3.5069778 0.18447787 -0.13361585
3.4862041 0.21402054 -0.1328907
3.5069971 0.24614833 -0.13376036
3.3995709 0.26855141 -0.12974776
3.351398 0.29430562 -0.12800267
3.4026103 0.3288604 -0.1300637
3.365752 0.3550804 -0.12876876
3.0053637 -1.219242 -0.094802767
3.0269954 -1.1972487 -0.095150664
3.019423 -1.1637737 -0.09458857
3.1308267 -1.1753199 -0.097752228
3.1595802 -1.1546415 -0.098330431
3.1823289 -1.1314579 -0.098726176
3.453522 -1.1939101 -0.10681093
3.5119033 -1.1797585 -0.10829279
3.5381908 -1.1542009 -0.10878746
3.5859795 -1.1351358 -0.10994687
3.5940032 -1.1031359 -0.1098924
3.6020122 -1.0711631 -0.10984619
3.6100097 -1.0392131 -0.10980827
3.6179934 -1.0072803 -0.10977852
3.023921 -0.81341434 -0.091533259
3.0768027 -0.79880625 -0.092918612
3.1126647 -0.77908021 -0.093791947
3.1193714 -0.75178701 -0.093792006
3.1260886 -0.72449398 -0.093799569
3.1328137 -0.69719589 -0.093814515
3.1395476 -0.66988832 -0.093836851
3.1462917 -0.64256692 -0.093866594
3.1530502 -0.615228 -0.093903847
3.1598227 -0.58786684 -0.093948595
3.166609 -0.56047863 -0.094000787
3.1734135 -0.5330596 -0.09406057
3.1802294 -0.50560385 -0.094127707
3.2146277 -0.3676348 -0.094578192
3.2215757 -0.3398701 -0.094691396
3.2285466 -0.31203726 -0.094812311
3.2355461 -0.284132 -0.094941139
3.2425742 -0.25614935 -0.09507788
3.2496309 -0.22808437 -0.095222555
3.2567186 -0.19993225 -0.09537527
3.2638371 -0.1716879 -0.095536031
3.2709866 -0.14334628 -0.095704876
3.2781732 -0.11490251 -0.095882028
3.2780709 -0.08615876 -0.095853284
3.2461586 -0.056872725 -0.094901942
3.2196541 -0.028202018 -0.094116241
3.5097544 0.18462391 -0.1027343
3.489306 0.21421094 -0.10218675
3.506856 0.24613842 -0.10275991
3.3940716 0.26811698 -0.099520043
3.3785553 0.29669043 -0.099137478
3.4024754 0.32884735 -0.099920049
3.4253716 0.36137018 -0.10068154
3.0292878 -1.2289476 -0.066749662
3.0342851 -1.200132 -0.066625588
3.0999129 -1.1947967 -0.067834213
3.1307118 -1.1752768 -0.06828028
3.1650388 -1.1566362 -0.068805344
3.1822975 -1.1314467 -0.06896244
3.4533985 -1.1938674 -0.074607886
3.5290725 -1.1855263 -0.076015502
3.5501528 -1.1581031 -0.076248139
2.9972577 -0.91997212 -0.064017378
3.0518184 -0.90754694 -0.065010436
3.0853117 -0.88816833 -0.065555677
3.091995 -0.86083782 -0.065534949
3.0986817 -0.83352441 -0.065519415
3.1053748 -0.80622417 -0.065509103
3.1120708 -0.77893156 -0.06550391
3.1187761 -0.75164354 -0.065503955
3.1254888 -0.72435498 -0.06550917
3.1322086 -0.69706124 -0.065519519
3.138941 -0.66975892 -0.065535121
3.1456845 -0.64244294 -0.065555908
3.1524396 -0.61510891 -0.065581888
3.1592104 -0.58775294 -0.065613121
3.1659958 -0.56037009 -0.065649584
3.1727958 -0.53295583 -0.065691262
3.1796122 -0.50550574 -0.065738201
3.2070801 -0.3952595 -0.065979145
3.2140007 -0.36756313 -0.06605275
3.2209456 -0.33980361 -0.066131771
3.2279172 -0.3119764 -0.06621626
3.2349141 -0.28407648 -0.066306204
3.2419398 -0.25609922 -0.066401683
3.248996 -0.22803982 -0.066502742
3.2560821 -0.19989318 -0.066609398
3.2632 -0.17165439 -0.066721685
3.2703512 -0.14331843 -0.066839673
3.2775345 -0.11488012 -0.066963352
3.2847567 -0.086334482 -0.067092881
3.2920144 -0.057676118 -0.067228228
3.2993116 -0.028899765 -0.067369491
3.3066487 0 -0.067516722
3.3080685 0.028976468 -0.067548305
3.2677855 0.057251628 -0.066733435
3.2478831 0.085365325 -0.066339724
3.5147429 0.18488631 -0.07186491
3.4954345 0.2145872 -0.071505807
3.5067177 0.24612872 -0.071777977
3.4126244 0.26958257 -0.069897659
3.4074016 0.2992236 -0.06984169
3.4350564 0.33199629 -0.070465438
3.0382097 -1.2016842 -0.037930701
3.1062024 -1.1972208 -0.038647152
3.1305952 -1.175233 -0.038821079
3.1730208 -1.1595532 -0.039219722
3.1821804 -1.1314051 -0.039208937
2.9771426 -1.0001156 -0.036461093
3.0476391 -0.99417698 -0.037216388
3.0646927 -0.97012341 -0.037319437
3.071372 -0.94272065 -0.037298787
3.0780509 -0.91534799 -0.037281096
3.0847301 -0.88800097 -0.037266355
3.091409 -0.86067468 -0.037254535
3.0980942 -0.83336633 -0.037245698
3.1047831 -0.80607051 -0.037239801
3.1114786 -0.77878332 -0.037236858
3.1181803 -0.75149995 -0.037236854
3.1248889 -0.72421598 -0.037239786
3.1316104 -0.69692814 -0.037245709
3.1383393 -0.66963047 -0.037254546
3.1450801 -0.6423195 -0.037266348
3.1518333 -0.61499059 -0.037281111
3.1585982 -0.58763903 -0.037298813
3.16538 -0.56026107 -0.037319511
3.1721792 -0.53285229 -0.037343215
3.2064545 -0.39518237 -0.037506834
3.2133741 -0.36749145 -0.03754868
3.2203174 -0.33973733 -0.037593596
3.2272878 -0.31191558 -0.03764163
3.2342839 -0.28402114 -0.037692767
3.2413087 -0.25604936 -0.037747048
3.2483613 -0.22799528 -0.037804473
3.2554464 -0.19985415 -0.037865106
3.2625639 -0.17162094 -0.03792895
3.2697141 -0.14329052 -0.037996028
3.2768991 -0.11485785 -0.038066369
3.2841191 -0.086317725 -0.038139991
3.2913768 -0.057664949 -0.038216949
3.2986705 -0.028894151 -0.038297229
3.3060074 0 -0.038380936
3.3133843 0.029023031 -0.038468052
3.3208044 0.058180518 -0.038558636
3.328269 0.087478139 -0.038652726
3.3357775 0.11692159 -0.038750332
3.2928329 0.14430366 -0.038264677
3.2693567 0.17197825 -0.038007919
3.5070088 0.21529773 -0.040791102
3.5065806 0.2461191 -0.040809631
3.4270003 0.27071819 -0.039909542
3.4120288 0.29962996 -0.039764229
3.4478574 0.33323351 -0.040214252
3.0421424 -1.2032397 -0.009167375
3.1802588 -1.2257644 -0.009550862
3.1872952 -1.1965183 -0.0095401527
2.9569829 -1.080604 -0.0088221161
3.011642 -1.0707711 -0.0089568635
3.0440862 -1.0523649 -0.0090255952
3.0507677 -1.0248486 -0.0090184417
3.0574484 -0.99737692 -0.0090120202
3.0641232 -0.96994311 -0.0090063056
3.0707972 -0.94254416 -0.0090013109
3.0774717 -0.91517574 -0.0089970324
3.0841477 -0.8878333 -0.0089934692
3.090827 -0.86051267 -0.0089906212
3.0975087 -0.83320886 -0.0089884829
3.104193 -0.80591732 -0.0089870496
3.1108871 -0.77863526 -0.0089863399
3.1175845 -0.75135636 -0.0089863306
3.1242921 -0.7240777 -0.0089870384
3.1136014 -0.69292027 -0.0089384839
3.0614481 -0.65322417 -0.0087720007
3.0802736 -0.62908411 -0.0088098152
3.2238688 -0.62904626 -0.009204396
3.2307959 -0.601071 -0.0092087882
3.3072791 -0.29043126 -0.0093034292
3.3142858 -0.26181424 -0.0093163308
3.2189357 -0.22592996 -0.0090423962
3.1756389 -0.19495471 -0.0089156302
3.2193484 -0.16934766 -0.0090338346
3.2690771 -0.14326259 -0.009169505
3.2762613 -0.11483549 -0.0091864821
3.2834809 -0.086300954 -0.0092042536
3.2907381 -0.057653759 -0.0092228269
3.298033 -0.028888566 -0.0092422087
3.3053689 0 -0.0092624109
3.3127463 0.029017443 -0.0092834402
3.3201644 0.058169309 -0.0093052993
3.3276289 0.087461315 -0.0093280086
3.3351369 0.11689913 -0.0093515664
3.3426943 0.14648876 -0.009375995
3.3502996 0.17623609 -0.0094012972
3.3434367 0.20525594 -0.0093867248
3.2966542 0.23138484 -0.0092607168
3.4166665 0.30003721 -0.0096111381
3.0709517 -1.5042254 0.020532975
3.0026934 -1.4383181 0.01999158
2.9679334 -1.3898392 0.019678345
2.956727 -1.353142 0.019524708
2.9458055 -1.3170608 0.019375663
2.9381022 -1.2828569 0.019250348
2.9346397 -1.2508556 0.019155139
2.9414158 -1.2234113 0.019128686
2.9635875 -1.2022939 0.01920365
2.9993989 -1.1863337 0.019367624
3.016525 -1.1626567 0.019411705
3.0233269 -1.1349642 0.019390758
3.0300934 -1.1073216 0.019371204
3.0368242 -1.0797246 0.019353028
3.0435252 -1.052171 0.019336257
3.0502048 -1.0246595 0.019320929
3.056881 -0.99719179 0.01930715
3.0635514 -0.96976215 0.01929489
3.070224 -0.94236827 0.019284187
3.0768943 -0.91500401 0.019275002
3.0835683 -0.88766652 0.019267363
3.0902429 -0.86035007 0.019261243
3.0846601 -0.82975268 0.019180408
3.0281487 -0.78617454 0.018785479
3.2300627 -0.056590725 0.019398062
3.2973943 -0.028882971 0.019800141
3.3047299 0 0.019843429
3.3121068 0.029011842 0.019888487
3.3195264 0.058158129 0.019935334
3.3269908 0.087444544 0.019983996
3.3344989 0.11687677 0.020034473
3.3420568 0.14646083 0.020086821
3.3496616 0.17620254 0.020141032
3.3573031 0.20610721 0.02019706
3.3649595 0.23617902 0.020254787
3.3726351 0.26642358 0.020314258
3.3803279 0.29684609 0.020375473
3.374068 0.32610181 0.020354178
3.353828 0.35382247 0.020249998
3.3445618 0.38249448 0.020213505
3.3554947 0.41355097 0.020300694
3.3801043 0.44667366 0.020472465
3.4138436 0.48159268 0.020701574
3.4499586 0.5175463 0.020947261
3.0710189 -1.5042584 0.050652664
3.0599771 -1.4657575 0.050256848
3.0491054 -1.4278508 0.049870968
3.0383961 -1.3905178 0.049494691
3.0278502 -1.3537427 0.049127854
3.0174558 -1.3175049 0.048770081
3.0082309 -1.282223 0.048437599
3.0044014 -1.2496086 0.048197839
3.0047963 -1.2190118 0.048031036
3.0092318 -1.1902227 0.047933448
3.015944 -1.1624328 0.047876343
3.0227509 -1.134748 0.047824774
3.02952 -1.1071121 0.04777661
3.0362561 -1.0795226 0.047731888
3.0429618 -1.0519762 0.047690615
3.0496423 -1.0244706 0.047652844
3.0563157 -0.99700737 0.047618832
3.062984 -0.9695825 0.047588583
3.0696509 -0.94219238 0.047562119
3.0015254 -0.89259088 0.046383638
3.2381053 0.05673163 0.047971055
3.3263516 0.087427743 0.049287837
3.3338606 0.1168544 0.049412373
3.341419 0.14643288 0.049541507
3.3490214 0.17616886 0.0496752
3.3566532 0.20606729 0.049813259
3.3643014 0.23613285 0.049955539
3.3719676 0.26637086 0.050102096
3.3796511 0.29678667 0.050252959
3.3877709 0.3274262 0.050414406
3.4001596 0.35871035 0.050643582
3.4191906 0.39102927 0.050976101
3.4483042 0.42498934 0.051463675
3.4822781 0.46017569 0.052028872
3.5170109 0.49614656 0.052610733
3.5525312 0.53293377 0.053209867
3.5937142 0.57134116 0.053899601
3.0709 -1.5042001 0.080776632
3.0598571 -1.4657001 0.080145381
3.0489862 -1.4277951 0.079530016
3.0382788 -1.3904641 0.078930005
3.0277321 -1.3536899 0.078344971
3.0173392 -1.317454 0.077774458
3.0080905 -1.2821631 0.077243619
3.0042801 -1.2495582 0.076861762
3.0046525 -1.2189534 0.076595187
3.0087276 -1.1900233 0.07643041
3.0153651 -1.1622096 0.076337494
3.022171 -1.1345303 0.076255277
3.0289445 -1.1069018 0.076178625
3.0356851 -1.0793195 0.076107457
3.0423977 -1.0517812 0.076041855
3.0490804 -1.0242819 0.075981714
2.9814508 -0.97258556 0.074081287
3.2594442 0.14284046 0.077069432
3.3483803 0.17613514 0.079205759
3.3559995 0.20602717 0.079425633
3.3636377 0.23608626 0.079652287
3.3712947 0.26631773 0.079885788
3.3789711 0.29672697 0.080126204
3.3872726 0.32737803 0.080387972
3.4000039 0.35869393 0.080761582
3.4190671 0.39101514 0.081292637
3.4481707 0.42497289 0.082069971
3.4821441 0.46015799 0.08297132
3.5168734 0.49612716 0.08389917
3.5523932 0.53291303 0.08485464
3.5935774 0.5713194 0.085954636
3.07078 -1.5041413 0.11091077
3.0597384 -1.4656433 0.11004406
3.0488684 -1.4277399 0.10919914
3.0381601 -1.3904098 0.10837525
3.0276151 -1.3536376 0.10757201
3.0172212 -1.3174025 0.10678861
3.0079713 -1.2821124 0.10605969
3.0041537 -1.2495056 0.10553512
3.0044749 -1.2188814 0.1051673
3.0082824 -1.1898472 0.10493173
3.0147839 -1.1619855 0.10479946
3.0215921 -1.134313 0.10468673
3.0283682 -1.1066911 0.10458163
2.9613242 -1.052881 0.10194393
3.3638062 0.20650645 0.10931373
3.2811403 0.23029596 0.10668879
3.3706245 0.26626477 0.10967007
3.3782933 0.29666746 0.10999992
3.3868515 0.32733735 0.11036771
3.3998494 0.35867763 0.1108894
3.4189472 0.3910014 0.11161971
3.4480371 0.42495644 0.11268663
3.4820116 0.4601405 0.11392431
3.5167408 0.49610844 0.11519834
3.552258 0.53289276 0.11651022
3.593451 0.57129931 0.11802091
2.9447229 -1.3476483 0.13360117
2.934859 -1.3121667 0.1326271
2.9285226 -1.2786741 0.13182956
2.9259658 -1.2471585 0.13121767
2.9263928 -1.2171628 0.13075368
2.9293125 -1.1883888 0.13041401
3.0525234 -1.2073456 0.13542339
2.9483802 -1.1363916 0.13035654
3.0808923 -1.1565744 0.13576217
3.4116802 0.269508 0.14118628
3.3224092 0.29175994 0.13759243
3.4379308 0.33227411 0.14249165
3.3601294 0.35448724 0.13939036
2.98491 -1.2109441 0.16131668
3.4115458 0.26949736 0.17138183
3.3794227 0.35652265 0.17018008
