# .PCD v0.7 - Point Cloud Data file format
VERSION 0.7
FIELDS x y z
SIZE 4 4 4
TYPE F F F
COUNT 1 1 1
WIDTH 256
HEIGHT 1
VIEWPOINT 0 0 0 1 0 0 0
POINTS 256
DATA ascii
2.2842717 0.2409863 0.21671712
2.2736802 0.26002511 0.21592008
2.2765205 0.28057182 0.2164149
2.2793756 0.30121467 0.21692881
2.282244 0.32195732 0.21746184
2.2851269 0.34280384 0.21801431
2.2880228 0.36375776 0.21858618
2.2909355 0.38482383 0.21917808
2.2938647 0.40600598 0.21979013
2.2968118 0.42730862 0.22042269
2.2997715 0.44873497 0.22107546
2.3027534 0.4702912 0.2217496
2.3057537 0.49198091 0.22244498
2.3087699 0.51380807 0.22316158
2.3118086 0.53577864 0.22390035
2.3148677 0.55789685 0.22466129
2.3179462 0.58016717 0.22544461
2.2861605 0.22095615 0.23712932
2.2707639 0.23956124 0.23574093
2.273591 0.26001492 0.23626181
2.2764306 0.28056073 0.23680317
2.2792854 0.30120274 0.2373655
2.2821538 0.32194462 0.23794878
2.2850363 0.34279025 0.23855323
2.2879336 0.36374357 0.23917913
2.2908471 0.38480896 0.23982689
2.2937744 0.40598997 0.24049641
2.2967205 0.42729163 0.24118848
2.2996829 0.44871768 0.24190305
2.3026624 0.4702726 0.24264047
2.3056622 0.49196139 0.2434013
2.3086817 0.51378846 0.24418579
2.3117187 0.53575778 0.24499397
2.3147779 0.55787522 0.24582662
2.3178551 0.58014446 0.24668364
2.2678556 0.21918701 0.25552896
2.2706738 0.23955175 0.25607306
2.2735012 0.26000467 0.25663891
2.2763433 0.28055 0.2572273
2.279197 0.30119109 0.25783798
2.2820654 0.32193214 0.25847155
2.284946 0.34277666 0.25912794
2.2878432 0.36372927 0.25980788
2.2907562 0.38479373 0.26051143
2.2936864 0.40597442 0.26123905
2.2966294 0.4272747 0.26199046
2.299593 0.44870016 0.26276681
2.3025744 0.47025463 0.26356804
2.3055716 0.49194205 0.26439422
2.3085902 0.51376808 0.26524627
2.3116264 0.53573644 0.2661241
2.3146865 0.55785322 0.26702869
2.3177643 0.58012164 0.26795965
2.3208671 0.60254854 0.26891828
2.2677681 0.21917854 0.27585667
2.2705843 0.23954232 0.2764439
2.2734127 0.25999454 0.27705488
2.2762544 0.28053901 0.27768999
2.2791057 0.30117902 0.27834901
2.2819748 0.32191935 0.27903309
2.2848573 0.34276336 0.27974194
2.2877548 0.36371517 0.28047597
2.2906661 0.38477856 0.28123534
2.2935956 0.40595832 0.28202078
2.2965405 0.42725813 0.28283218
2.2995019 0.4486824 0.28367007
2.3024824 0.47023582 0.28453493
2.3054814 0.49192283 0.28542709
2.3085001 0.51374799 0.28634694
2.3115366 0.53571558 0.28729463
2.3145959 0.55783135 0.2882711
2.3176744 0.58009917 0.28927624
2.3207731 0.60252422 0.29031062
2.2676799 0.21917002 0.2962262
2.2704949 0.23953289 0.29685661
2.2733223 0.25998423 0.29751262
2.2761631 0.28052777 0.29819453
2.2790182 0.30116743 0.29890269
2.2818859 0.32190681 0.29963714
2.2847664 0.34274974 0.30039811
2.2876644 0.36370081 0.30118644
2.2905762 0.38476345 0.30200189
2.2935035 0.40594202 0.30284506
2.2964506 0.42724141 0.30371672
2.299413 0.44866502 0.30461657
2.302392 0.47021738 0.30554515
2.3053913 0.4919036 0.30650324
2.3084085 0.51372761 0.30749083
2.3114448 0.53569436 0.30850849
2.3145039 0.55780917 0.30955705
2.3175824 0.58007616 0.31063643
2.3206823 0.60250056 0.31174734
2.2675886 0.2191612 0.31664044
2.270406 0.2395235 0.31731462
2.2732337 0.25997406 0.31801587
2.2760749 0.28051689 0.3187449
2.2789268 0.30115539 0.31950143
2.2817955 0.32189405 0.32028663
2.2846775 0.34273639 0.32110023
2.2875741 0.36368644 0.32194272
2.2904861 0.38474834 0.32281446
2.2934153 0.40592641 0.32371598
2.2963586 0.42722428 0.32464719
2.2993219 0.44864726 0.32560924
2.3023007 0.47019875 0.32660177
2.3052993 0.49188396 0.32762581
2.3083165 0.51370716 0.32868147
2.3113554 0.53567362 0.32976964
2.3144126 0.55778712 0.33089021
2.3174911 0.58005327 0.33204401
2.320591 0.60247689 0.33323151
2.2675011 0.21915273 0.33710364
2.2703164 0.23951405 0.33782113
2.2731447 0.2599639 0.33856782
2.2759833 0.28050563 0.33934355
2.2788382 0.30114365 0.3401494
2.2817059 0.32188144 0.34098524
2.2845852 0.34272256 0.34185106
2.2874842 0.36367217 0.34274834
2.2903969 0.38473335 0.34367654
2.293323 0.4059101 0.34463593
2.2962692 0.42720765 0.34562773
2.2992308 0.4486295 0.3466517
2.3022113 0.47018045 0.34770864
2.3052089 0.49186468 0.34879872
2.3082256 0.5136869 0.34992257
2.3112643 0.53565246 0.35108104
2.3143218 0.55776525 0.35227409
2.3174005 0.58003062 0.35350254
2.3205001 0.60245329 0.35476673
2.2674117 0.21914409 0.35761839
2.2702258 0.23950449 0.35837936
2.2730532 0.25995341 0.35917136
2.2758946 0.28049469 0.3599948
2.278748 0.30113176 0.3608495
2.2816138 0.32186845 0.36173588
2.2844973 0.34270933 0.36265504
2.2873921 0.36365753 0.36360633
2.2903044 0.38471782 0.36459097
2.2932332 0.40589416 0.36560914
2.2961783 0.42719075 0.36666116
2.2991393 0.44861159 0.36774737
2.3021195 0.47016171 0.36886862
2.3051169 0.49184504 0.37002501
2.3081338 0.51366651 0.37121731
2.3111706 0.53563076 0.372446
2.3142297 0.55774313 0.37371197
2.3173079 0.58000743 0.37501505
2.3204088 0.60242963 0.37635645
2.2673199 0.21913522 0.37818798
2.2701359 0.23949501 0.37899306
2.2729635 0.25994316 0.37983066
2.2758021 0.28048328 0.38070101
2.278656 0.3011196 0.38160497
2.2815249 0.3218559 0.38254291
2.2844052 0.34269556 0.38351443
2.2873023 0.36364323 0.38452077
2.2902141 0.38470262 0.38556197
2.2931426 0.40587816 0.38663873
2.2960858 0.42717353 0.38775095
2.299046 0.44859344 0.38889956
2.3020275 0.47014293 0.39008552
2.3050253 0.49182549 0.39130849
2.3080418 0.51364607 0.39256936
2.3110797 0.53560972 0.39386892
2.3141367 0.55772066 0.39520732
2.3172145 0.57998407 0.39658532
2.3203146 0.60240513 0.39800376
2.2672298 0.21912651 0.39881647
2.270046 0.23948553 0.39966553
2.2728717 0.25993267 0.40054852
2.2757123 0.28047222 0.40146667
2.2785664 0.30110773 0.40242001
2.2814326 0.32184288 0.40340862
2.2843149 0.34268197 0.40443352
2.2872107 0.36362866 0.4054946
2.2901235 0.38468742 0.40659279
2.2930501 0.40586177 0.40772793
2.2959936 0.42715639 0.40890092
2.2989564 0.44857594 0.41011262
2.3019364 0.47012433 0.41136304
2.304934 0.49180603 0.41265273
2.307951 0.5136258 0.41398245
2.3109882 0.5355885 0.41535282
2.3140447 0.55769849 0.41676414
2.3171232 0.57996124 0.41821748
2.3202243 0.60238165 0.41971344
2.2671402 0.21911785 0.41950718
2.269953 0.23947573 0.4203997
2.2727816 0.25992239 0.42132905
2.2756205 0.28046089 0.4222945
2.2784746 0.3010956 0.42329735
2.2813423 0.32183015 0.42433757
2.2842219 0.34266806 0.42541519
2.2871187 0.36361405 0.42653146
2.2900312 0.38467193 0.4276866
2.2929578 0.40584543 0.42888063
2.2959023 0.4271394 0.43011472
2.2988651 0.44855812 0.4313893
2.3018444 0.47010553 0.43270445
2.304842 0.49178636 0.43406108
2.3078592 0.51360542 0.43545988
2.310895 0.53556687 0.43690106
2.313952 0.55767614 0.43838573
2.3170314 0.57993823 0.43991467
2.3201318 0.60235769 0.44148815
2.2670484 0.21910898 0.44026312
2.2698624 0.23946618 0.44120005
2.2726898 0.25991186 0.44217515
2.2755291 0.28044963 0.44318849
2.2783847 0.30108371 0.44424126
2.2812498 0.32181707 0.44533244
2.2841313 0.34265444 0.44646373
2.2870283 0.36359966 0.44763535
2.2899387 0.38465637 0.44884726
2.2928655 0.40582913 0.45010048
2.2958119 0.42712259 0.45139599
2.2987728 0.44854012 0.45273328
2.3017521 0.47008669 0.45411354
2.3047493 0.49176657 0.4555372
2.3077664 0.51358473 0.4570052
2.3108025 0.53554547 0.45851779
2.3138602 0.55765402 0.46007609
2.3169389 0.57991511 0.46168059
2.2669568 0.21910012 0.46108824
2.2697716 0.23945658 0.46206966
2.2725995 0.25990152 0.46309099
2.27544 0.28043866 0.4641526
2.2782915 0.30107141 0.46525431
2.2811577 0.32180408 0.46639737
2.2840402 0.34264079 0.4675824
2.2869349 0.36358485 0.46880904
2.2898459 0.38464081 0.47007841
2.2927759 0.40581322 0.4713915
2.2957191 0.42710534 0.47274771
2.2986803 0.44852206 0.4741483
2.3016591 0.47006771 0.47559384
2.304657 0.49174687 0.47708499
2.307673 0.51356399 0.47862223
2.3107104 0.53552413 0.4802067
2.313766 0.55763131 0.48183826
2.3168437 0.57989132 0.48351848
2.2696803 0.23944692 0.48301208
2.2725077 0.25989103 0.48407969
2.2753465 0.28042713 0.48518905
2.278199 0.30105919 0.48634094
2.2810664 0.3217912 0.4875361
2.283947 0.34262681 0.48877448
2.2868419 0.36357003 0.49005672
2.2897549 0.38462549 0.49138406
2.2926829 0.40579677 0.49275631
2.2956266 0.42708814 0.49417412
2.2985868 0.44850382 0.49563801
2.3015664 0.47004876 0.49714923
2.3045635 0.49172696 0.49870786
2.3075812 0.51354349 0.50031513
