# .PCD v0.7 - Point Cloud Data file format
VERSION 0.7
FIELDS x y z
SIZE 4 4 4
TYPE F F F
COUNT 1 1 1
WIDTH 221
HEIGHT 1
VIEWPOINT 0 0 0 1 0 0 0
POINTS 221
DATA ascii
2.032609 -1.4840475 0.21510954
2.0360217 -1.459372 0.21410969
2.0394013 -1.4349214 0.21313514
2.0427513 -1.4106913 0.21218574
2.0460725 -1.3866744 0.21126093
2.0537453 -1.3657773 0.21080984
2.0656345 -1.3477393 0.21081036
2.0290852 -1.5088983 0.23857614
2.0325291 -1.4839894 0.23744358
2.0359428 -1.4593153 0.23634002
2.0393224 -1.4348658 0.23526432
2.0426729 -1.410637 0.23421639
2.0459921 -1.3866199 0.23319536
2.0492842 -1.3628105 0.2322011
2.0525489 -1.3392016 0.23123297
2.0557873 -1.3157874 0.23029058
2.0589986 -1.2925607 0.2293732
2.0621846 -1.2695167 0.22848059
2.065346 -1.2466494 0.22761226
2.0684848 -1.2239542 0.22676796
2.0716021 -1.2014259 0.22594732
2.0746942 -1.1790565 0.22514948
2.0777652 -1.1568433 0.22437449
2.0290053 -1.5088387 0.26105222
2.0324502 -1.4839318 0.25981316
2.0358617 -1.4592572 0.25860536
2.039242 -1.4348094 0.25742841
2.0425918 -1.410581 0.2562817
2.0459123 -1.3865658 0.25516465
2.0492046 -1.3627576 0.25407678
2.0524688 -1.3391492 0.25301737
2.0557075 -1.3157362 0.25198624
2.0589185 -1.2925104 0.25098243
2.0621045 -1.2694674 0.25000572
2.0652673 -1.2466019 0.24905579
2.0684049 -1.2239069 0.2481318
2.0715189 -1.2013776 0.24723347
2.0746133 -1.1790106 0.24636078
2.0776842 -1.1567982 0.24551277
2.0807335 -1.1347362 0.2446892
2.0289261 -1.5087799 0.28356761
2.0323699 -1.483873 0.2822215
2.0357809 -1.4591993 0.28090948
2.0391622 -1.4347532 0.2796312
2.0425122 -1.4105262 0.27838564
2.0458326 -1.3865119 0.27717227
2.049125 -1.3627046 0.27599055
2.0523887 -1.339097 0.27483976
2.0556257 -1.3156838 0.27371946
2.0588367 -1.2924591 0.27262911
2.0620239 -1.2694178 0.27156833
2.0651851 -1.2465522 0.27053624
2.0683231 -1.2238586 0.26953268
2.0714383 -1.2013309 0.26855704
2.0745301 -1.1789634 0.26760876
2.077601 -1.1567519 0.2666876
2.0806525 -1.134692 0.26579329
2.028847 -1.508721 0.30612573
2.0322907 -1.4838153 0.30467257
2.0357022 -1.4591428 0.30325627
2.0390816 -1.4346966 0.30187604
2.0424323 -1.4104708 0.30053151
2.0457523 -1.3864573 0.29922155
2.0490437 -1.3626506 0.29794574
2.052309 -1.339045 0.29670367
2.0555453 -1.3156325 0.29549414
2.0587564 -1.2924087 0.29431707
2.0619431 -1.2693681 0.29317188
2.0651042 -1.2465035 0.29205772
2.0682416 -1.2238102 0.29097417
2.0713568 -1.2012836 0.28992096
2.0744491 -1.1789173 0.28889734
2.0775213 -1.1567075 0.2879031
2.0805707 -1.1346474 0.28693739
2.0287666 -1.5086613 0.32873014
2.0322108 -1.483757 0.32716975
2.0356221 -1.4590855 0.32564887
2.0390027 -1.434641 0.32416692
2.0423532 -1.4104161 0.32272306
2.0456717 -1.3864028 0.32131621
2.0489631 -1.362597 0.3199462
2.0522275 -1.3389919 0.31861228
2.055464 -1.3155805 0.31731349
2.0586741 -1.2923571 0.3160494
2.061861 -1.2693175 0.31481969
2.0650232 -1.2464545 0.31362337
2.0681608 -1.2237625 0.31245995
2.0712757 -1.2012365 0.31132892
2.074367 -1.1788707 0.31022957
2.0774393 -1.156662 0.30916199
2.0804889 -1.1346027 0.30812496
2.0286863 -1.5086015 0.35138458
2.0321305 -1.4836981 0.34971666
2.0355422 -1.4590282 0.3480911
2.0389216 -1.4345838 0.3465068
2.0422707 -1.4103593 0.34496328
2.0455918 -1.3863487 0.3434599
2.0488827 -1.3625436 0.34199542
2.0521476 -1.3389398 0.34056965
2.0553827 -1.3155285 0.33918121
2.0585957 -1.2923079 0.33783042
2.0617805 -1.2692679 0.33651564
2.0649412 -1.2464051 0.33523673
2.0680785 -1.2237138 0.33399305
2.0711923 -1.2011883 0.33278394
2.074286 -1.1788245 0.33160922
2.0773571 -1.1566161 0.33046788
2.0804064 -1.1345578 0.32935941
2.0286067 -1.5085423 0.37409291
2.0320518 -1.4836407 0.3723174
2.0354605 -1.4589697 0.37058625
2.038841 -1.4345272 0.36889982
2.0421908 -1.4103041 0.36725667
2.0455108 -1.3862936 0.36565596
2.0488017 -1.3624897 0.36409688
2.0520639 -1.3388853 0.36257854
2.0553017 -1.3154765 0.36110082
2.0585122 -1.2922554 0.35966235
2.0616992 -1.2692178 0.35826302
2.0648589 -1.2463554 0.35690129
2.0679977 -1.223666 0.35557753
2.0711122 -1.2011418 0.35429043
2.0742035 -1.1787778 0.35303941
2.0772734 -1.1565695 0.3518241
2.0803256 -1.1345136 0.3506445
2.0285258 -1.5084822 0.39685851
2.0319698 -1.4835808 0.39497477
2.0353808 -1.4589126 0.39313874
2.0387585 -1.4344692 0.3913492
2.0421097 -1.410248 0.38960633
2.0454299 -1.3862391 0.38790828
2.0487196 -1.362435 0.38625407
2.0519857 -1.3388342 0.38464409
2.0552201 -1.3154243 0.38307586
2.0584319 -1.292205 0.3815501
2.0616159 -1.2691666 0.38006508
2.0647781 -1.2463065 0.37862095
2.0679159 -1.2236176 0.37721649
2.0710292 -1.2010936 0.37585083
2.074122 -1.1787313 0.37452397
2.0771925 -1.1565245 0.3732349
2.0802412 -1.1344677 0.37198287
2.0284464 -1.5084232 0.41968569
2.031889 -1.4835219 0.41769335
2.0352998 -1.4588544 0.41575167
2.0386796 -1.4344136 0.41385961
2.0420277 -1.4101915 0.41201594
2.0453477 -1.3861833 0.41022018
2.0486395 -1.3623817 0.40847129
2.0519011 -1.338779 0.40676785
2.0551383 -1.315372 0.40510997
2.0583487 -1.2921528 0.40349624
2.0615361 -1.2691175 0.40192646
2.0646961 -1.2462571 0.40039885
2.0678315 -1.2235676 0.3989132
2.0709476 -1.2010463 0.39746958
2.0740387 -1.1786841 0.3960661
2.0771093 -1.1564782 0.39470288
2.0801594 -1.134423 0.39337912
2.0283642 -1.5083621 0.44257736
2.0318084 -1.483463 0.44047672
2.0352178 -1.4587955 0.43842882
2.0385971 -1.4343556 0.43643352
2.0419464 -1.4101353 0.43448955
2.0452654 -1.3861275 0.4325957
2.0485568 -1.3623267 0.43075135
2.051821 -1.3387268 0.42895555
2.0550568 -1.3153198 0.42720699
2.0582669 -1.2921014 0.42550519
2.0614531 -1.2690663 0.42384958
2.0646133 -1.2462071 0.42223874
2.0677512 -1.22352 0.42067254
2.0708652 -1.2009984 0.41914973
2.0739567 -1.1786375 0.41766986
2.0770271 -1.1564323 0.41623223
2.0800765 -1.1343778 0.4148362
2.0282836 -1.5083021 0.46553829
2.0317261 -1.483403 0.4633283
2.0351377 -1.4587382 0.46117473
2.0385168 -1.434299 0.45907587
2.0418649 -1.410079 0.45703083
2.0451841 -1.3860723 0.45503876
2.0484743 -1.3622719 0.45309854
2.051738 -1.3386725 0.45120946
2.0549748 -1.3152673 0.44937044
2.0581861 -1.2920506 0.44758061
2.0613708 -1.2690157 0.44583881
2.0645318 -1.246158 0.44414464
2.0676682 -1.2234709 0.44249687
2.0707819 -1.2009503 0.44089508
2.0738728 -1.1785898 0.43933827
2.0769446 -1.1563864 0.4378264
2.0799937 -1.1343328 0.43635792
2.0316451 -1.4833438 0.48625267
2.0350564 -1.4586799 0.48399249
2.0384347 -1.4342414 0.48178968
2.0417824 -1.410022 0.47964334
2.0451031 -1.3860176 0.47755313
2.048394 -1.3622184 0.47551703
2.051656 -1.3386191 0.47353417
2.054894 -1.3152156 0.47160447
2.0581024 -1.2919981 0.46972546
2.0612886 -1.2689651 0.46789786
2.0644488 -1.2461078 0.46611968
2.067585 -1.2234218 0.4643904
2.0706997 -1.2009025 0.46270955
2.073791 -1.1785434 0.46107587
2.0768609 -1.1563398 0.45948878
2.0799096 -1.1342868 0.45794755
2.0450199 -1.3859611 0.50014198
2.0483119 -1.3621639 0.49800992
2.051574 -1.3385656 0.49593332
2.0548103 -1.3151621 0.49391192
2.0580196 -1.2919462 0.49194431
2.0612047 -1.2689134 0.49002996
2.0643644 -1.2460569 0.48816761
2.0675018 -1.2233726 0.48635685
2.0706162 -1.2008542 0.48459649
2.0737069 -1.1784955 0.48288539
2.0767763 -1.1562927 0.48122317
2.0947802 -1.1423966 0.48305774
