# .PCD v0.7 - Point Cloud Data file format
VERSION 0.7
FIELDS x y z
SIZE 4 4 4
TYPE F F F
COUNT 1 1 1
WIDTH 860
HEIGHT 1
VIEWPOINT 0 0 0 1 0 0 0
POINTS 860
DATA ascii
3.3545833 -0.68510634 -0.58818042
3.2992163 -0.64374816 -0.57746172
3.262151 -0.75602746 -0.54494369
3.2642667 -0.72645026 -0.54421324
3.2664711 -0.69697016 -0.54354209
3.2673318 -0.66728699 -0.54269189
3.2169852 -0.62770313 -0.53339577
3.2736001 -0.60903448 -0.54187757
3.5388677 0.72274274 -0.58779299
3.4544635 0.73708224 -0.57482409
3.4217062 0.76148784 -0.57046127
3.212539 -0.74452955 -0.50688696
3.2150118 -0.71548879 -0.50626886
3.2175369 -0.68652898 -0.50570011
3.2188611 -0.65738779 -0.50498384
3.1758099 -0.61966896 -0.49735925
3.2489719 -0.60445255 -0.50796843
3.5387235 0.72271329 -0.55516475
3.4387746 0.73373473 -0.54047209
3.3689017 0.74973643 -0.53050196
3.4263649 0.7940852 -0.54062527
3.4352787 0.82792252 -0.54315513
3.1770792 -0.7363115 -0.47193122
3.1797228 -0.70763534 -0.47138506
3.1824009 -0.67903203 -0.4708823
3.1837606 -0.65021926 -0.47022271
3.1458626 -0.61382556 -0.46381348
3.2488558 -0.60443091 -0.47819948
3.4386351 0.73370492 -0.50879586
3.3589575 0.74752337 -0.49795613
3.3286579 0.77144098 -0.49444708
3.3812449 0.8149001 -0.50329947
3.3871844 0.84779072 -0.50526953
3.3932698 0.88096809 -0.50730896
3.1497085 -0.72996813 -0.43883175
3.1524553 -0.70156705 -0.43834144
3.155226 -0.67323363 -0.43788993
3.1561325 -0.64457673 -0.43721539
3.122426 -0.60925263 -0.43179023
3.24874 -0.6044094 -0.44850844
3.5384364 0.72265464 -0.49017552
3.4384959 0.73367524 -0.4772028
3.3437018 0.74412829 -0.46493381
3.2951536 0.76367605 -0.45909581
3.3420935 0.80546433 -0.46660078
3.3481898 0.83803064 -0.46845877
3.353478 0.87063724 -0.47024763
3.1278493 -0.72490203 -0.4070228
3.130666 -0.69671792 -0.40657958
3.1334994 -0.66859776 -0.40617141
3.1340964 -0.64007628 -0.40550649
3.1036799 -0.60559481 -0.40086934
3.2486246 -0.60438788 -0.41889045
3.5382936 0.72262543 -0.45780373
3.4383571 0.73364556 -0.44568777
3.3435669 0.74409825 -0.43422902
3.2765057 0.75935423 -0.42636725
3.3117814 0.798159 -0.43185085
3.318423 0.83058023 -0.43364897
3.3232114 0.86277938 -0.4352456
3.3280795 0.89523083 -0.43689343
3.110122 -0.7207936 -0.37617937
3.1129897 -0.69278413 -0.37577784
3.1158683 -0.66483587 -0.37540796
3.1160195 -0.63638449 -0.37474018
3.0883317 -0.60260004 -0.37076136
3.2485092 -0.60436642 -0.38934058
3.6436765 0.71095985 -0.43743181
3.5381508 0.72259635 -0.42550674
3.4382184 0.73361599 -0.41424555
3.3434322 0.74406826 -0.40359521
3.2680991 0.75740594 -0.39528722
3.2824752 0.79109603 -0.39784896
3.2948809 0.82468778 -0.40021276
3.2993193 0.85657644 -0.40164781
3.3038213 0.88870555 -0.40312806
3.1683733 -0.94220799 -0.36000314
3.1697028 -0.912462 -0.35923228
3.1711216 -0.8828674 -0.35850289
3.0956914 -0.71744925 -0.34608868
3.098598 -0.68958133 -0.34572506
3.1015115 -0.66177255 -0.34539011
3.1010079 -0.63331866 -0.34470305
3.0757468 -0.60014451 -0.34129763
3.2483943 -0.60434502 -0.35985407
3.6435299 0.71093118 -0.4043012
3.5380085 0.72256726 -0.39327931
3.4380803 0.73358649 -0.38287103
3.3432977 0.74403834 -0.37302735
3.2677817 0.75733244 -0.36532784
3.2391751 0.78066039 -0.36288023
3.275811 0.8199147 -0.36777499
3.280163 0.85160309 -0.36908689
3.2843933 0.8834796 -0.37041947
3.1036425 -0.95262569 -0.32467917
3.1060481 -0.92367375 -0.324072
3.1084778 -0.89483726 -0.3234953
3.1151774 -0.86729205 -0.3233895
3.2016637 -0.8612259 -0.33157188
3.0041127 -0.69622523 -0.3083964
3.0070164 -0.66920024 -0.30808091
2.9730747 -0.63436782 -0.30402246
3.0889838 -0.63086295 -0.31529799
3.0656397 -0.59817243 -0.31236845
3.2482793 -0.60432369 -0.33042616
3.5378664 0.72253823 -0.36111623
3.4379423 0.73355711 -0.35155919
3.3431637 0.74400848 -0.34252053
3.2531297 0.75393677 -0.33396
3.2237258 0.77693707 -0.33162734
3.2601721 0.81600034 -0.336099
3.2647693 0.84760654 -0.33732542
3.2687905 0.87928253 -0.33852369
3.4059772 1.0128664 -0.35536534
3.3718045 1.0349348 -0.35273218
3.3794067 1.0697455 -0.35449412
3.3882267 1.1052808 -0.35642123
3.0768712 -0.94440848 -0.2932747
3.0752242 -0.91450733 -0.29234299
3.0809388 -0.88690954 -0.29213649
3.0948703 -0.86163837 -0.29273063
3.1192846 -0.83906645 -0.29433343
3.2017164 -0.8312366 -0.30141303
2.9296484 -0.70606267 -0.27459356
2.9976737 -0.6947329 -0.28038839
3.0005934 -0.66777074 -0.28010362
2.9729657 -0.63434458 -0.27699527
3.0795074 -0.62892759 -0.28639764
3.0575461 -0.59659314 -0.28385833
3.6432374 0.71087414 -0.33823308
3.5377245 0.72250926 -0.32901236
3.4378045 0.73352772 -0.32030493
3.3430297 0.74397874 -0.31206986
3.2529995 0.75390655 -0.30427036
3.2130883 0.77437335 -0.30116016
3.2479327 0.8129369 -0.30508178
3.1712027 0.82331455 -0.29854041
3.1729815 0.85351056 -0.29940021
3.176492 0.88436252 -0.30045089
3.1285837 0.90062505 -0.29665422
3.4082706 1.0135484 -0.3240037
3.3284841 1.021638 -0.3172574
3.3160355 1.0496856 -0.31693512
3.321635 1.0835578 -0.31836522
3.3294141 1.1184547 -0.32003751
3.1282263 -0.99023485 -0.26987097
3.1115124 -0.95504123 -0.2676971
3.1006384 -0.92206502 -0.26605648
3.1006398 -0.89258093 -0.26537555
3.1141474 -0.86700529 -0.26587144
3.1415148 -0.84504622 -0.26756573
3.296092 -0.85573858 -0.28008205
2.9046876 -0.70004696 -0.24574296
2.9928131 -0.69360644 -0.25267488
2.9957464 -0.66669208 -0.2524198
2.9728589 -0.63432175 -0.25001356
3.07197 -0.62738824 -0.2578766
3.0513625 -0.59538656 -0.25569913
3.6430914 0.71084565 -0.30528504
3.5375829 0.72248036 -0.2969625
3.4376671 0.73349833 -0.2891033
3.3428962 0.743949 -0.28167042
3.2528696 0.75387645 -0.27463073
3.2054753 0.77253854 -0.27119026
3.2384472 0.81056279 -0.2745699
3.1710765 0.82328182 -0.26945898
3.0938854 0.83223426 -0.26350909
3.1699049 0.88252866 -0.27063176
3.1230409 0.89902949 -0.2672928
3.3265142 0.98923576 -0.28543821
3.307498 1.0151967 -0.28455859
3.2974677 1.0438079 -0.28447133
3.2955735 1.0750562 -0.28510937
3.3051548 1.1103053 -0.28676867
3.118619 -0.98719364 -0.24005955
3.0997314 -0.95142525 -0.23795505
3.0999064 -0.92184734 -0.2373395
3.3576686 -0.90319014 -0.255169
3.361042 -0.87260103 -0.25483471
3.3644056 -0.84208935 -0.25452071
2.8791234 -0.69388586 -0.2173405
2.9894333 -0.69282317 -0.22520086
2.9923797 -0.66594285 -0.22497474
2.9727495 -0.63429844 -0.22307263
3.066462 -0.62626338 -0.22968429
3.0466919 -0.59447521 -0.22780469
3.601007 0.66994661 -0.2688024
3.5909476 0.70067126 -0.26849934
3.5374417 0.72245151 -0.26496163
3.4375298 0.73346907 -0.25794935
3.3427627 0.74391931 -0.25131744
3.2527399 0.75384641 -0.24503635
3.2001047 0.77124423 -0.24157086
3.2313359 0.80878282 -0.24445386
3.1718552 0.823484 -0.24049056
3.0926013 0.83188879 -0.23502497
3.1650233 0.88116956 -0.24110606
3.1229162 0.89899361 -0.23848915
3.3487506 0.99584836 -0.25639185
3.3225865 1.019828 -0.25506282
3.3110311 1.0481014 -0.25487071
3.3105638 1.0799463 -0.25555313
3.3269007 1.1176105 -0.25756001
3.1158662 -0.98632228 -0.21092808
3.0936587 -0.94956124 -0.20885368
3.0905216 -0.91905648 -0.20809044
3.0971968 -0.89158976 -0.20800607
3.113028 -0.86669362 -0.20855142
3.1423776 -0.84527832 -0.21001357
3.3609114 -0.87256712 -0.22409937
2.8670213 -0.71759719 -0.19074126
2.8583448 -0.68887806 -0.18975529
2.8816934 -0.66785365 -0.19090964
2.8638909 -0.63734818 -0.18935312
2.8750033 -0.6134423 -0.18972529
2.8888521 -0.58999008 -0.19029085
2.8925598 -0.56440079 -0.19020215
2.895292 -0.53865242 -0.19006425
2.8980303 -0.51294112 -0.18994178
2.9007754 -0.48726273 -0.18983467
2.9035318 -0.46161354 -0.18974318
2.906296 -0.43598863 -0.18966697
2.9090693 -0.41038391 -0.18960609
2.9118526 -0.38479519 -0.18956053
2.9146459 -0.35921815 -0.18953027
2.9174511 -0.33364877 -0.18951538
2.9202671 -0.30808261 -0.18951572
2.923094 -0.28251541 -0.18953131
2.9259348 -0.25694323 -0.18956231
2.9287853 -0.23136137 -0.18960841
2.9316506 -0.20576605 -0.18966997
2.9345295 -0.18015283 -0.18974684
2.9374237 -0.15451755 -0.18983917
2.9403315 -0.12885579 -0.18994687
2.9432549 -0.10316336 -0.19007006
2.9461935 -0.077435903 -0.19020873
2.9491484 -0.051669102 -0.19036298
2.9521217 -0.025858613 -0.19053297
2.9551663 0 -0.19072217
2.9582317 0.025912132 -0.19092731
2.9613218 0.051882379 -0.19114874
2.9644339 0.077915318 -0.19138634
2.9675698 0.10401562 -0.19164027
2.9707291 0.13018793 -0.19191056
2.9739151 0.15643711 -0.19219755
2.9771378 0.18276858 -0.1925019
2.9804552 0.20919152 -0.19282748
2.9838052 0.23570772 -0.19317038
2.9871879 0.26232222 -0.19353071
2.9906046 0.2890403 -0.19390866
2.9941928 0.31588164 -0.19431326
2.9978576 0.34284431 -0.19473851
3.0015643 0.36993051 -0.19518231
3.0053151 0.39714608 -0.19564492
3.0091681 0.42450491 -0.19613028
3.0133281 0.45204508 -0.19665197
3.018023 0.47981575 -0.19722506
3.0228567 0.50776953 -0.19782402
3.0301812 0.53633136 -0.19860317
3.5673501 0.66368496 -0.23418215
3.5616496 0.69495457 -0.23419857
3.5373003 0.72242266 -0.23300463
3.4373927 0.7334398 -0.22683811
3.3426297 0.74388963 -0.2210061
3.2526104 0.75381637 -0.21548255
3.1966939 0.77042222 -0.21221708
3.2261357 0.80748123 -0.21463291
3.1708243 0.82321632 -0.21142472
3.046901 0.81959569 -0.20363261
3.0369525 0.84551358 -0.2034549
3.0862463 0.88843739 -0.20727064
3.0450809 0.90554339 -0.20503083
3.317981 1.0503014 -0.22461022
3.3160481 1.0817353 -0.22511216
3.3339617 1.1199825 -0.2269855
3.0953131 -0.95006907 -0.18034744
3.0898685 -0.91886228 -0.17955437
3.0952444 -0.89102769 -0.17940634
3.1097002 -0.86576712 -0.17979778
3.1365573 -0.84371269 -0.18091638
2.8766825 -0.74685055 -0.16554312
2.8638694 -0.71680832 -0.16443814
2.8570704 -0.68857092 -0.16369517
2.877641 -0.6669144 -0.16453274
2.8628464 -0.63711572 -0.1633615
2.8732936 -0.61307746 -0.16364492
2.8857894 -0.58936459 -0.1640563
2.889358 -0.56377602 -0.16397214
2.8922346 -0.53808355 -0.16386162
2.8951025 -0.51242292 -0.16376352
2.8979623 -0.48679018 -0.16367781
2.9008143 -0.46118149 -0.16360447
2.9036589 -0.43559304 -0.16354343
2.9064972 -0.41002107 -0.16349474
2.9093287 -0.38446164 -0.1634583
2.9121532 -0.35891095 -0.16343409
2.9149764 -0.33336574 -0.16342239
2.9177945 -0.30782175 -0.16342294
2.9206085 -0.2822752 -0.1634358
2.9234157 -0.256722 -0.16346079
2.926218 -0.23115857 -0.16349798
2.9290156 -0.2055811 -0.16354741
2.9318113 -0.17998596 -0.16360921
2.9345987 -0.15436895 -0.16368303
2.9373863 -0.12872672 -0.16376933
2.9401703 -0.10305525 -0.16386794
2.9429517 -0.077350698 -0.16397889
2.9457312 -0.051609233 -0.16410229
2.9485092 -0.02582697 -0.16423814
2.9512856 0 -0.16438648
2.9540644 0.02587563 -0.16454758
2.9568462 0.051803969 -0.16472149
2.9596298 0.077789053 -0.16490819
2.9624135 0.1038349 -0.16510765
2.9651992 0.12994559 -0.16531999
2.9679873 0.15612529 -0.16554534
2.970778 0.18237816 -0.16578375
2.9735711 0.20870836 -0.16603526
2.9763665 0.23512009 -0.16629995
2.979167 0.26161787 -0.16657808
2.9819729 0.28820604 -0.16686973
2.9847832 0.31488895 -0.16717492
2.9876683 0.34167901 -0.16749771
2.9905643 0.36857477 -0.16783464
2.9934707 0.39558083 -0.16818576
2.9963858 0.42270169 -0.1685511
2.9993119 0.44994244 -0.16893092
3.0022476 0.47730771 -0.16932525
3.0051949 0.50480276 -0.16973436
3.0081539 0.53243268 -0.17015836
3.011126 0.56020266 -0.17059749
3.0141101 0.58811784 -0.17105187
3.0171092 0.616184 -0.17152178
3.0201521 0.64441282 -0.17200908
3.023273 0.67281801 -0.17251585
3.0264504 0.70140213 -0.17304111
3.0296493 0.73016346 -0.17358305
3.0328701 0.75910813 -0.17414185
3.0361137 0.78824246 -0.17471784
3.0305896 0.81520808 -0.17480417
3.0247741 0.84212291 -0.17488748
3.046011 0.8768549 -0.17655268
3.0310209 0.90136224 -0.17613469
3.0608821 0.93950087 -0.17834133
3.1419947 -0.99459326 -0.15446749
3.1008105 -0.92211622 -0.15162528
3.1006711 -0.89258987 -0.15123034
3.1138434 -0.86692065 -0.15149663
3.1404493 -0.84475964 -0.15242521
3.2024796 -0.83143473 -0.1550765
3.3640141 -0.84199136 -0.16253525
2.8728065 -0.69236344 -0.1385038
2.987828 -0.69245106 -0.14375128
2.8787794 -0.64066154 -0.1382294
2.9236221 -0.62381613 -0.14011486
3.0609665 -0.62514096 -0.14642903
3.0423372 -0.59362555 -0.14528355
2.9125276 0.025511796 -0.1365155
2.9221265 0.051195681 -0.13698119
2.928714 0.076976486 -0.13731633
2.9323485 0.10278109 -0.13752367
2.9331164 0.12853961 -0.13760722
2.9311271 0.15418632 -0.13757196
2.9267678 0.17967634 -0.13743596
2.9296544 0.20562592 -0.1376508
2.9325578 0.23165938 -0.13787727
3.5626814 0.40743932 -0.16807143
3.5662878 0.43953034 -0.16841672
3.5699124 0.4717564 -0.16877656
3.573554 0.50412309 -0.16915101
3.5772169 0.53663701 -0.16954039
3.5808966 0.56930333 -0.1699446
3.5845997 0.60212928 -0.17036413
3.5877991 0.63502777 -0.170774
3.5537329 0.66115153 -0.16942164
3.5401146 0.69075263 -0.16905437
3.5316894 0.7212767 -0.16894726
3.437119 0.73338139 -0.16472423
3.3423636 0.74383044 -0.16048917
3.2523515 0.7537564 -0.15647812
3.1942344 0.76982945 -0.15400048
3.2222416 0.80650657 -0.15568538
3.1705732 0.82315117 -0.15353148
3.0413396 0.81809974 -0.14761481
3.0336077 0.84458232 -0.14759295
3.063417 0.8818655 -0.14941333
3.0392959 0.90382308 -0.1486173
3.3222873 1.0197361 -0.1628857
3.3132598 1.0488069 -0.16288726
3.3160787 1.0817453 -0.16348541
3.3429453 1.1230003 -0.16528857
3.119004 -0.98731554 -0.12447359
3.0993185 -0.95129842 -0.1233507
3.0989285 -0.92155647 -0.12300919
3.2276299 -0.86821061 -0.12716816
3.1633594 -0.82127827 -0.12434772
2.894866 -0.69767988 -0.1132957
2.9196887 -0.67665935 -0.11403084
2.9008384 -0.6455707 -0.11306944
2.9279902 -0.62474811 -0.11391009
3.0626233 -0.62547934 -0.11893012
3.0437701 -0.59390515 -0.11799146
2.8817933 -0.22764921 -0.10998631
2.8954899 -0.20322801 -0.11043687
2.9344411 -0.18014739 -0.11185803
2.9906375 0.052395992 -0.11380342
2.9935286 0.078680031 -0.1139353
2.9964323 0.10502727 -0.11407645
2.9993544 0.13144238 -0.11422715
3.0022886 0.15792964 -0.11438719
3.0052395 0.18449378 -0.1145568
3.0082071 0.21113938 -0.11473601
3.0111907 0.23787104 -0.11492487
3.0141916 0.26469356 -0.11512347
3.017211 0.29161179 -0.11533193
3.0202489 0.31863052 -0.11555031
3.0201168 0.34538993 -0.11565657
2.9967179 0.36933321 -0.11487998
2.9721024 0.39275706 -0.11406384
2.952796 0.41655245 -0.11345858
3.5793879 0.53696269 -0.13771026
3.5829029 0.56962234 -0.13803217
3.5864313 0.60243696 -0.13836609
3.5894258 0.63531572 -0.13869098
3.5535924 0.66112542 -0.13752492
3.5412478 0.69097376 -0.13727614
3.5326943 0.72148198 -0.13718429
3.4369822 0.73335224 -0.13371184
3.3422308 0.74380088 -0.1302741
3.2522225 0.75372648 -0.12701821
3.1951332 0.77004606 -0.12504719
3.2234221 0.80680209 -0.12642606
3.1704483 0.82311869 -0.12462637
3.0899777 0.83118308 -0.12174469
3.0580754 0.85139436 -0.12077694
3.0845127 0.88793838 -0.12212355
3.0640681 0.91118979 -0.12162545
3.3197837 1.0189675 -0.13212506
3.3096981 1.0476794 -0.13208383
3.3102291 1.0798371 -0.13247742
3.3281798 1.1180401 -0.13358264
3.1150477 -0.98606318 -0.095508009
3.0931621 -0.94940877 -0.094578385
3.0897686 -0.9188326 -0.094224922
3.0963669 -0.89135081 -0.094184421
3.1122305 -0.86647159 -0.094432473
3.1193821 -0.83909267 -0.094422832
3.1591318 -0.82018065 -0.095404923
2.9172499 -0.70307451 -0.087714694
2.9324548 -0.67961794 -0.087989502
2.9236298 -0.65064281 -0.087550342
2.9722073 -0.63418281 -0.088835277
3.066004 -0.62616986 -0.091471292
3.0467422 -0.5944851 -0.090737797
2.8705273 -0.32828242 -0.084454343
2.9255579 -0.30864078 -0.08599057
2.9535236 -0.28545642 -0.086735748
2.9562771 -0.25960776 -0.086746506
2.9590402 -0.23375139 -0.086764172
2.9618092 -0.20788282 -0.086788639
2.9645884 -0.18199816 -0.086820029
2.9900532 0.052385755 -0.08741466
2.9929428 0.078664638 -0.08751592
2.9958484 0.10500681 -0.087624416
2.9987671 0.13141665 -0.087740086
3.0017002 0.15789869 -0.087863006
3.0046489 0.18445753 -0.087993234
3.0076158 0.21109787 -0.088130891
3.0105989 0.23782429 -0.088275962
3.0135992 0.26464155 -0.088428512
3.0166173 0.29155442 -0.088588618
3.019655 0.31856784 -0.08875636
3.0227113 0.34568664 -0.088931784
3.0257859 0.37291571 -0.089114927
3.0288832 0.40026054 -0.089305982
3.0320015 0.427726 -0.089504957
3.0351408 0.45531732 -0.089711919
3.0383031 0.48303995 -0.08992701
3.0105002 0.50569397 -0.089231789
2.976747 0.52687371 -0.088364735
2.9676936 0.55212229 -0.088236161
3.5500019 0.69268185 -0.10572583
3.5367372 0.72230762 -0.10551517
3.342098 0.74377137 -0.1000817
3.2520933 0.75369656 -0.097580396
3.1974192 0.77059698 -0.096138716
3.226769 0.80763978 -0.097230174
3.172461 0.82364124 -0.095807463
3.0919893 0.83172417 -0.093593657
3.0992696 0.86286312 -0.094039209
3.0882545 0.8890155 -0.093937665
3.3322275 0.99093473 -0.10161889
3.3213096 1.019436 -0.10155436
3.3101604 1.0478258 -0.10149021
3.3097053 1.0796661 -0.1017623
3.3258119 1.1172446 -0.10255449
3.3557546 1.1601112 -0.10378717
3.0874069 -0.97731358 -0.06612315
3.0745821 -0.94370592 -0.065668926
3.0732782 -0.91392869 -0.065467581
3.0792794 -0.88643181 -0.065427504
3.0930481 -0.86113101 -0.065557271
3.1162441 -0.83824855 -0.065890759
3.1591997 -0.82019836 -0.066644564
2.9409363 -0.70878309 -0.06176877
2.9368396 -0.6806342 -0.061555147
2.953254 -0.65723556 -0.061776154
2.9721005 -0.63415998 -0.06205181
3.0711546 -0.6272217 -0.064002708
3.0511665 -0.59534836 -0.063475043
2.8593638 -0.4289481 -0.059037145
2.9011059 -0.40926051 -0.059822679
2.9420135 -0.38878086 -0.060593672
2.9447408 -0.36292723 -0.060582045
2.9474757 -0.33708248 -0.060575243
2.9502165 -0.31124222 -0.06057322
2.9529612 -0.28540209 -0.060575921
2.9557137 -0.25955829 -0.06058342
2.9584761 -0.23370682 -0.060595755
2.9612441 -0.20784315 -0.060612839
2.9640183 -0.18196318 -0.060634673
2.9894693 0.052375525 -0.061049771
2.9923582 0.078649268 -0.061120488
2.9952614 0.10498624 -0.061196227
2.9981794 0.1313909 -0.061277006
3.0011108 0.1578677 -0.061362829
3.0040605 0.18442139 -0.061453812
3.0070255 0.21105644 -0.061549921
3.0100069 0.23777753 -0.061651215
3.0130069 0.26458952 -0.061757762
3.0160244 0.29149711 -0.061869577
3.0190609 0.31850517 -0.061986718
3.0221169 0.3456187 -0.062109236
3.0251939 0.37284273 -0.062237203
3.0282896 0.40018207 -0.062370613
3.0314078 0.42764226 -0.062509589
3.0345471 0.45522827 -0.062654145
3.037709 0.4829455 -0.062804364
3.0408936 0.51079929 -0.062960289
3.0441008 0.53879511 -0.063121989
3.0473335 0.56693888 -0.063289568
3.0463793 0.59441423 -0.063375458
3.0070467 0.61412895 -0.062666707
2.9766879 0.63513881 -0.062147584
3.2519643 0.75366664 -0.068160057
3.2011929 0.77150643 -0.067234963
3.2321589 0.80898887 -0.068031572
3.1701975 0.8230536 -0.066876568
3.1059067 0.83546788 -0.065672182
3.1064768 0.86486971 -0.065841898
3.121032 0.89845115 -0.066314653
3.3245087 0.98863935 -0.070819341
3.3046813 1.0143321 -0.07058353
3.2960114 1.043347 -0.070590846
3.300288 1.0765941 -0.070881687
3.304332 1.1100289 -0.071174636
3.347173 1.1571444 -0.072312973
3.139884 -0.96374953 -0.038130794
3.0806661 -0.91612566 -0.037312768
3.1431329 -0.90481341 -0.037971914
3.1492393 -0.87677515 -0.037951447
3.1813116 -0.85575128 -0.038246151
3.1978354 -0.83022898 -0.038355902
2.9406297 -0.68151259 -0.035043944
2.953146 -0.65721154 -0.035123151
2.9915211 -0.63830376 -0.035511702
3.0781512 -0.62865061 -0.036473304
3.0572004 -0.59652567 -0.036161754
2.8509119 -0.50460136 -0.033611964
2.9003897 -0.48719794 -0.034143679
2.9333091 -0.46634763 -0.034481797
2.9360237 -0.44044825 -0.034467034
2.9387393 -0.41456947 -0.034454964
2.9414625 -0.38870806 -0.034445651
2.9441872 -0.36285898 -0.034439016
2.946919 -0.33701882 -0.034435119
2.949657 -0.31118318 -0.034433942
2.9524 -0.28534782 -0.034435462
2.9551504 -0.25950882 -0.034439705
2.9579093 -0.23366205 -0.034446687
2.9606757 -0.20780326 -0.034456383
2.9634507 -0.18192832 -0.034468811
2.966234 -0.15603307 -0.034483965
2.9888854 0.052365299 -0.034704652
2.9917736 0.078633897 -0.034744848
2.9946761 0.10496572 -0.034787901
2.997592 0.13136515 -0.034833804
3.0005238 0.15783681 -0.034882601
3.0034716 0.18438524 -0.034934308
3.0064352 0.21101502 -0.034988932
3.0094187 0.23773107 -0.035046548
3.0124173 0.26453775 -0.035107106
3.0154338 0.29144001 -0.035170659
3.0184708 0.31844291 -0.035237264
3.0215256 0.34555104 -0.035306908
3.0246012 0.37276968 -0.035379641
3.0276959 0.40010363 -0.035455476
3.0308135 0.42755842 -0.035534479
3.0339508 0.4551388 -0.035616636
3.0371134 0.48285082 -0.035702046
3.0402973 0.51069915 -0.035790686
3.0435054 0.53868973 -0.035882622
3.0467377 0.56682801 -0.035977889
3.0499973 0.59512019 -0.036076553
3.0532799 0.62357116 -0.0361786
3.0565896 0.65218747 -0.036284115
3.0570242 0.68032926 -0.036358621
3.0135293 0.69840759 -0.035912696
2.9859183 0.71962404 -0.035657402
3.2394447 0.81081247 -0.038768306
3.1703699 0.8230983 -0.038026471
3.1748002 0.85399973 -0.038167868
3.110774 0.8660661 -0.037487902
3.1403966 0.90402567 -0.037938856
3.3723674 1.0028715 -0.04084583
3.356914 1.0303643 -0.040766411
3.3436837 1.0584375 -0.040716771
3.2966034 1.0753921 -0.040256623
3.1402748 -0.96386951 -0.0092049679
3.1063366 -0.92375952 -0.0090814196
3.143476 -0.90491211 -0.0091664717
3.1495209 -0.87685353 -0.0091613512
3.181818 -0.85588753 -0.0092331357
2.9444311 -0.68239355 -0.0084696673
2.9530399 -0.65718794 -0.0084775472
2.8424413 -0.58051157 -0.0081295967
2.8768432 -0.56133407 -0.0082136104
2.9246464 -0.54411364 -0.008336165
2.9273524 -0.51813108 -0.0083306227
2.930057 -0.49218136 -0.0083257314
2.9327648 -0.46626109 -0.0083215013
2.9354749 -0.44036591 -0.0083179269
2.9381895 -0.41449189 -0.0083150119
2.9409096 -0.38863501 -0.0083127581
2.9436336 -0.36279076 -0.0083111553
2.9463639 -0.33695531 -0.0083102128
2.9490993 -0.31112435 -0.0083099222
2.9518387 -0.28529358 -0.0083102807
2.9545879 -0.25945944 -0.0083113043
2.9573441 -0.2336174 -0.0083129816
2.9601095 -0.20776351 -0.0083153211
2.9628818 -0.18189341 -0.0083183134
2.8876901 -0.15190141 -0.0081031658
3.0889626 0.2440147 -0.008682956
3.091856 0.27151373 -0.0086974408
3.0947526 0.29910612 -0.0087126242
3.0121844 0.31777969 -0.0084876819
2.9486744 0.3372196 -0.0083167292
2.9444366 0.36288974 -0.008313423
3.027102 0.40002516 -0.0085563883
3.0302186 0.4274745 -0.0085754525
3.0333555 0.45504951 -0.0085952803
3.0365179 0.48275611 -0.0086158924
3.0397017 0.51059908 -0.0086372858
3.0429113 0.53858453 -0.0086594783
3.0461423 0.56671727 -0.008682467
3.0494015 0.59500396 -0.0087062782
3.0526841 0.6234495 -0.008730907
3.0559962 0.65206087 -0.0087563796
3.0593338 0.68084323 -0.0087826941
3.0626998 0.70980316 -0.0088098673
3.0660946 0.73894703 -0.0088379132
3.0480657 0.7629115 -0.0088048689
3.0048864 0.78013515 -0.0086995447
3.1150839 0.867266 -0.0090611801
3.3749607 1.0036428 -0.0098667461
3.3588705 1.0309647 -0.009845729
3.3482378 1.0598791 -0.0098413974
3.366004 1.0980315 -0.009921507
2.9642413 -0.93832564 0.018669413
2.8975918 -0.88938087 0.018199878
2.8809321 -0.85672897 0.018047409
2.8664284 -0.82515848 0.017910587
2.8529742 -0.79429239 0.017782364
2.8434246 -0.76486194 0.017680405
2.8373852 -0.73664808 0.017602054
2.8427453 -0.71152115 0.017595969
2.8610528 -0.68953067 0.017671224
2.8918517 -0.67020786 0.01782451
2.9130645 -0.64829153 0.01791957
2.9158604 -0.62215996 0.017902559
2.9186327 -0.59607214 0.017886838
2.921381 -0.57002437 0.017872397
2.9241076 -0.54401338 0.017859239
2.9268136 -0.51803571 0.017847368
2.9295163 -0.49209055 0.01783688
2.9322195 -0.46617442 0.017827792
2.9349279 -0.44028386 0.017820127
2.9376411 -0.41441455 0.017813878
2.9403582 -0.38856214 0.017809032
2.9430799 -0.36272255 0.017805589
2.9458079 -0.33689177 0.017803559
2.9485412 -0.31106547 0.017802926
2.8736889 -0.27774045 0.017335624
2.9965689 0.47640488 0.018219033
2.9591126 0.49706203 0.018017082
3.0423181 0.53847957 0.0185517
3.0455503 0.56660712 0.018600961
3.0488102 0.59488857 0.018651981
3.0520933 0.62332886 0.018704752
3.0554054 0.6519348 0.018759325
3.058743 0.68071175 0.018815706
3.0621073 0.70966583 0.018873915
3.0655017 0.7388041 0.018933998
3.0689032 0.76812696 0.018995836
3.0723033 0.79763806 0.019059397
3.0756993 0.82734227 0.019124689
3.0790951 0.8572464 0.019191759
3.0631716 0.88179487 0.019139916
3.0414362 0.90445954 0.019052876
3.0282955 0.92949885 0.019020833
3.031075 0.95948178 0.019090347
3.0493052 0.99472052 0.019259302
3.0767131 1.0335646 0.019488841
3.1080759 1.0744866 0.019746363
3.002948 -0.95057821 0.046655823
2.9883008 -0.91722286 0.046301652
2.9738722 -0.88436741 0.045956302
2.9596584 -0.8519966 0.045619573
2.9456494 -0.82009393 0.045291178
2.9318409 -0.78864539 0.044970926
2.9198725 -0.75806361 0.044683777
2.9129176 -0.72908479 0.04447791
2.9095922 -0.70122898 0.044331644
2.909873 -0.67438447 0.044244222
2.9125056 -0.64816719 0.044196226
2.9153035 -0.62204117 0.044154309
2.9180794 -0.59595919 0.044115596
2.9208319 -0.5699172 0.044080045
2.923564 -0.54391223 0.044047687
2.9262741 -0.51794016 0.044018477
2.9289742 -0.49199948 0.043992579
2.9316783 -0.46608838 0.04397019
2.9343855 -0.44020247 0.043951273
2.9370944 -0.41433743 0.043935802
2.8741257 -0.37980965 0.042942442
2.9900517 0.58342355 0.045124684
3.0515006 0.62320781 0.046132661
3.0548131 0.65180844 0.046267278
3.0581512 0.68058008 0.046406347
3.0615182 0.70952934 0.046549965
3.0649083 0.73866111 0.046698097
3.0682983 0.76797557 0.046850447
3.0716879 0.79747832 0.047007062
3.0750802 0.82717574 0.047168043
3.0784667 0.85707146 0.047333326
3.0824733 0.88735127 0.047512617
3.0909925 0.91919655 0.047766201
3.105933 0.95332867 0.04812428
3.1309476 0.99109632 0.048644513
3.1601708 1.0308862 0.04923695
3.1901121 1.0716588 0.049847789
3.0028293 -0.95054066 0.07440275
2.988184 -0.91718704 0.073837981
2.9737563 -0.8843329 0.073287249
2.9595435 -0.85196352 0.072750278
2.945534 -0.82006186 0.072226554
2.9317262 -0.78861451 0.071715847
2.9197426 -0.75802994 0.071257547
2.9128051 -0.7290566 0.070929654
2.9094532 -0.70119548 0.070695758
2.909421 -0.67427969 0.07054875
2.9119444 -0.64804226 0.070469595
2.9147458 -0.62192214 0.070402861
2.9175251 -0.595846 0.070341229
2.9202819 -0.56980991 0.070284657
2.9230163 -0.54381031 0.070233129
2.9257331 -0.51784444 0.070186727
2.9284353 -0.49190894 0.070145495
2.8540702 -0.45374995 0.068266392
3.001399 0.66795009 0.072634421
3.0609281 0.70939261 0.074222557
3.0643108 0.73851705 0.074458584
3.0676923 0.76782393 0.074701309
3.071074 0.79731894 0.074950852
3.0744581 0.82700843 0.075207353
3.0778408 0.85689718 0.075470813
3.082103 0.8872447 0.075762987
3.0908735 0.91916114 0.076173566
3.105794 0.95328605 0.076744117
3.1308293 0.99105883 0.077574275
3.1600471 1.0308459 0.078518935
3.1899886 1.0716174 0.079493091
3.0027125 -0.95050365 0.10215909
2.9880676 -0.91715133 0.10138363
2.9736428 -0.88429922 0.10062753
2.9594276 -0.85193014 0.099890128
2.945421 -0.82003039 0.099171109
2.931612 -0.78858376 0.098469816
2.9196093 -0.75799537 0.097839892
2.9126878 -0.72902721 0.097390205
2.9092822 -0.70115429 0.097067259
2.9090459 -0.67419279 0.096858628
2.9113815 -0.64791697 0.096743718
2.9141889 -0.62180328 0.096652307
2.9169712 -0.59573281 0.09656781
2.9197299 -0.56970221 0.096490242
2.8694799 -0.53385025 0.094671428
3.4358909 0.73311937 0.11395513
3.3411701 0.74356484 0.11102537
3.2757113 0.75917017 0.10906699
3.3083532 0.7973327 0.11038213
2.9879022 0.74785292 0.099905118
3.0704608 0.79715967 0.10289512
3.0738342 0.82684058 0.10324691
3.0772128 0.85672235 0.10360848
3.0817814 0.88715208 0.10401996
3.0907538 0.91912556 0.10459054
3.1056507 0.95324206 0.10537316
3.1307075 0.99102026 0.10651377
3.159924 1.0308057 0.10781083
3.1898663 1.0715762 0.10914847
2.9637697 -0.93817633 0.12824903
2.924984 -0.89778858 0.12622556
2.9202743 -0.86842847 0.12568922
2.9155078 -0.83928692 0.12516287
2.910687 -0.81036013 0.1246464
2.9059515 -0.78168124 0.12414563
2.9027343 -0.75361419 0.12372144
2.9015532 -0.72624034 0.12339522
2.8943419 -0.69755358 0.12282398
2.8692777 -0.66497618 0.12150852
2.8343141 -0.63076597 0.11978931
2.9646449 -0.63256913 0.12505862
3.4357543 0.73309028 0.1449316
3.3410375 0.74353534 0.14120543
3.2930543 0.76318955 0.13945466
3.3345394 0.80364382 0.14150417
3.339391 0.83582836 0.14201528
3.1530039 0.81858975 0.13438852
3.0910125 0.83146149 0.13205166
3.0161371 0.8397184 0.12916216
3.1213138 0.89853227 0.13399813
3.0032864 0.89311451 0.12926209
3.0105374 0.92404819 0.12991756
3.0214133 0.95642334 0.13074341
3.0375865 0.99089766 0.13181379
2.8817341 -0.69451499 0.1484488
2.972055 -0.68879557 0.1527849
2.9743156 -0.66192275 0.1525972
2.9712379 -0.63397592 0.15214856
3.4356179 0.73306113 0.17592812
3.3560188 0.74686933 0.17218047
3.3210711 0.76968265 0.17072684
3.3666546 0.81138372 0.17342885
3.3708241 0.84369588 0.17401765
3.3749962 0.8762238 0.17462257
3.0908902 0.83142853 0.16029356
3.0402207 0.84642345 0.15804428
3.1211901 0.89849669 0.16265632
3.0484648 0.90654963 0.15927404
3.4354811 0.73303193 0.20694952
3.3603864 0.74784136 0.20281272
3.3997054 0.78790671 0.20559442
3.4063582 0.82095253 0.20642368
3.4108486 0.85371375 0.20714103
3.4453878 0.73514575 0.23869647
3.390157 0.75446671 0.2353189
3.4550219 0.80072671 0.24029896
3.460346 0.83396387 0.24116805
