# .PCD v0.7 - Point Cloud Data file format
VERSION 0.7
FIELDS x y z
SIZE 4 4 4
TYPE F F F
COUNT 1 1 1
WIDTH 128
HEIGHT 1
VIEWPOINT 0 0 0 1 0 0 0
POINTS 128
DATA ascii
2.9344411 -0.18014739 -0.11185803
2.9255579 -0.30864078 -0.08599057
2.9535236 -0.28545642 -0.086735748
2.9562771 -0.25960776 -0.086746506
2.9590402 -0.23375139 -0.086764172
2.9618092 -0.20788282 -0.086788639
2.9645884 -0.18199816 -0.086820029
2.9420135 -0.38878086 -0.060593672
2.9447408 -0.36292723 -0.060582045
2.9474757 -0.33708248 -0.060575243
2.9502165 -0.31124222 -0.06057322
2.9529612 -0.28540209 -0.060575921
2.9557137 -0.25955829 -0.06058342
2.9584761 -0.23370682 -0.060595755
2.9612441 -0.20784315 -0.060612839
2.9640183 -0.18196318 -0.060634673
2.9003897 -0.48719794 -0.034143679
2.9333091 -0.46634763 -0.034481797
2.9360237 -0.44044825 -0.034467034
2.9387393 -0.41456947 -0.034454964
2.9414625 -0.38870806 -0.034445651
2.9441872 -0.36285898 -0.034439016
2.946919 -0.33701882 -0.034435119
2.949657 -0.31118318 -0.034433942
2.9524 -0.28534782 -0.034435462
2.9551504 -0.25950882 -0.034439705
2.9579093 -0.23366205 -0.034446687
2.9606757 -0.20780326 -0.034456383
2.9634507 -0.18192832 -0.034468811
2.966234 -0.15603307 -0.034483965
2.9246464 -0.54411364 -0.008336165
2.9273524 -0.51813108 -0.0083306227
2.930057 -0.49218136 -0.0083257314
2.9327648 -0.46626109 -0.0083215013
2.9354749 -0.44036591 -0.0083179269
2.9381895 -0.41449189 -0.0083150119
2.9409096 -0.38863501 -0.0083127581
2.9436336 -0.36279076 -0.0083111553
2.9463639 -0.33695531 -0.0083102128
2.9490993 -0.31112435 -0.0083099222
2.9518387 -0.28529358 -0.0083102807
2.9545879 -0.25945944 -0.0083113043
2.9573441 -0.2336174 -0.0083129816
2.9601095 -0.20776351 -0.0083153211
2.9628818 -0.18189341 -0.0083183134
2.8975918 -0.88938087 0.018199878
2.8809321 -0.85672897 0.018047409
2.8664284 -0.82515848 0.017910587
2.8529742 -0.79429239 0.017782364
2.8434246 -0.76486194 0.017680405
2.8373852 -0.73664808 0.017602054
2.8427453 -0.71152115 0.017595969
2.8610528 -0.68953067 0.017671224
2.8918517 -0.67020786 0.01782451
2.9130645 -0.64829153 0.01791957
2.9158604 -0.62215996 0.017902559
2.9186327 -0.59607214 0.017886838
2.921381 -0.57002437 0.017872397
2.9241076 -0.54401338 0.017859239
2.9268136 -0.51803571 0.017847368
2.9295163 -0.49209055 0.01783688
2.9322195 -0.46617442 0.017827792
2.9349279 -0.44028386 0.017820127
2.9376411 -0.41441455 0.017813878
2.9403582 -0.38856214 0.017809032
2.9430799 -0.36272255 0.017805589
2.9458079 -0.33689177 0.017803559
2.9485412 -0.31106547 0.017802926
3.002948 -0.95057821 0.046655823
2.9883008 -0.91722286 0.046301652
2.9738722 -0.88436741 0.045956302
2.9596584 -0.8519966 0.045619573
2.9456494 -0.82009393 0.045291178
2.9318409 -0.78864539 0.044970926
2.9198725 -0.75806361 0.044683777
2.9129176 -0.72908479 0.04447791
2.9095922 -0.70122898 0.044331644
2.909873 -0.67438447 0.044244222
2.9125056 -0.64816719 0.044196226
2.9153035 -0.62204117 0.044154309
2.9180794 -0.59595919 0.044115596
2.9208319 -0.5699172 0.044080045
2.923564 -0.54391223 0.044047687
2.9262741 -0.51794016 0.044018477
2.9289742 -0.49199948 0.043992579
2.9316783 -0.46608838 0.04397019
2.9343855 -0.44020247 0.043951273
2.9370944 -0.41433743 0.043935802
3.0028293 -0.95054066 0.07440275
2.988184 -0.91718704 0.073837981
2.9737563 -0.8843329 0.073287249
2.9595435 -0.85196352 0.072750278
2.945534 -0.82006186 0.072226554
2.9317262 -0.78861451 0.071715847
2.9197426 -0.75802994 0.071257547
2.9128051 -0.7290566 0.070929654
2.9094532 -0.70119548 0.070695758
2.909421 -0.67427969 0.07054875
2.9119444 -0.64804226 0.070469595
2.9147458 -0.62192214 0.070402861
2.9175251 -0.595846 0.070341229
2.9202819 -0.56980991 0.070284657
2.9230163 -0.54381031 0.070233129
2.9257331 -0.51784444 0.070186727
2.9284353 -0.49190894 0.070145495
3.0027125 -0.95050365 0.10215909
2.9880676 -0.91715133 0.10138363
2.9736428 -0.88429922 0.10062753
2.9594276 -0.85193014 0.099890128
2.945421 -0.82003039 0.099171109
2.931612 -0.78858376 0.098469816
2.9196093 -0.75799537 0.097839892
2.9126878 -0.72902721 0.097390205
2.9092822 -0.70115429 0.097067259
2.9090459 -0.67419279 0.096858628
2.9113815 -0.64791697 0.096743718
2.9141889 -0.62180328 0.096652307
2.9169712 -0.59573281 0.09656781
2.9197299 -0.56970221 0.096490242
2.924984 -0.89778858 0.12622556
2.9202743 -0.86842847 0.12568922
2.9155078 -0.83928692 0.12516287
2.910687 -0.81036013 0.1246464
2.9059515 -0.78168124 0.12414563
2.9027343 -0.75361419 0.12372144
2.9015532 -0.72624034 0.12339522
2.8943419 -0.69755358 0.12282398
2.8817341 -0.69451499 0.1484488
