# .PCD v0.7 - Point Cloud Data file format
VERSION 0.7
FIELDS x y z
SIZE 4 4 4
TYPE F F F
COUNT 1 1 1
WIDTH 1418
HEIGHT 1
VIEWPOINT 0 0 0 1 0 0 0
POINTS 1418
DATA ascii
0.25706428 -0.081373267 0.17268898
0.25776717 -0.07911852 0.17268898
0.25845027 -0.076857708 0.17268898
0.25911355 -0.074590996 0.17268898
0.25975695 -0.072318554 0.17268898
0.26038042 -0.070040576 0.17268898
0.26098391 -0.067757212 0.17268898
0.26156741 -0.065468661 0.17268898
0.2621308 -0.063175082 0.17268898
0.26267409 -0.060876653 0.17268898
0.26319724 -0.058573555 0.17268898
0.26370019 -0.056265965 0.17268898
0.2641829 -0.053954061 0.17268898
0.26464537 -0.051638011 0.17268898
0.26508752 -0.049318004 0.17268898
0.26550931 -0.046994213 0.17268898
0.26591074 -0.044666816 0.17268898
0.2662918 -0.042335991 0.17268898
0.26665238 -0.040001918 0.17268898
0.26699254 -0.037664775 0.17268898
0.2673122 -0.035324745 0.17268898
0.26761135 -0.032982003 0.17268898
0.26788998 -0.03063673 0.17268898
0.26814806 -0.028289108 0.17268898
0.26838556 -0.025939316 0.17268898
0.26860246 -0.023587532 0.17268898
0.26879877 -0.02123394 0.17268898
0.26897442 -0.018878717 0.17268898
0.26912948 -0.016522048 0.17268898
0.26926386 -0.01416411 0.17268898
0.26937759 -0.011805085 0.17268898
0.26947066 -0.009445156 0.17268898
0.26954305 -0.007084501 0.17268898
0.26959476 -0.0047233026 0.17268898
0.26962581 -0.0023617418 0.17268898
0.26963615 0 0.17268898
0.26962581 0.0023617418 0.17268898
0.26959476 0.0047233026 0.17268898
0.26954305 0.007084501 0.17268898
0.26947066 0.009445156 0.17268898
0.26937759 0.011805085 0.17268898
0.26926386 0.01416411 0.17268898
0.26912948 0.016522048 0.17268898
0.26897442 0.018878717 0.17268898
0.26879877 0.02123394 0.17268898
0.26860246 0.023587532 0.17268898
0.26838556 0.025939316 0.17268898
0.26814806 0.028289108 0.17268898
0.26788998 0.03063673 0.17268898
0.26761135 0.032982003 0.17268898
0.2673122 0.035324745 0.17268898
0.26699254 0.037664775 0.17268898
0.26665238 0.040001918 0.17268898
0.2662918 0.042335991 0.17268898
0.26591074 0.044666816 0.17268898
0.26550931 0.046994213 0.17268898
0.26508752 0.049318004 0.17268898
0.26464537 0.051638011 0.17268898
0.2641829 0.053954061 0.17268898
0.26370019 0.056265965 0.17268898
0.26319724 0.058573555 0.17268898
0.26267409 0.060876653 0.17268898
0.2621308 0.063175082 0.17268898
0.26156741 0.065468661 0.17268898
0.26098391 0.067757212 0.17268898
0.26038042 0.070040576 0.17268898
0.25975695 0.072318554 0.17268898
0.25911355 0.074590996 0.17268898
0.25845027 0.076857708 0.17268898
0.25776717 0.07911852 0.17268898
0.25706428 0.081373267 0.17268898
0.25634167 0.08362177 0.17268898
0.25559938 0.085863858 0.17268898
0.25483751 0.08809936 0.17268898
0.25405607 0.090328105 0.17268898
0.25325513 0.092549913 0.17268898
0.25243479 0.09476462 0.17268898
0.25159505 0.096972063 0.17268898
0.25073603 0.099172063 0.17268898
0.24985775 0.10136446 0.17268898
0.24896032 0.10354907 0.17268898
0.24804379 0.10572574 0.17268898
0.24710822 0.1078943 0.17268898
0.2461537 0.11005458 0.17268898
0.24518028 0.11220641 0.17268898
0.24418806 0.11434965 0.17268898
0.2431771 0.1164841 0.17268898
0.24214749 0.11860962 0.17268898
0.2410993 0.12072604 0.17268898
0.24003261 0.12283319 0.17268898
0.23894751 0.12493093 0.17268898
0.23784408 0.12701908 0.17268898
0.23672239 0.12909748 0.17268898
0.23558255 0.13116598 0.17268898
0.23442464 0.13322441 0.17268898
0.23324873 0.13527262 0.17268898
0.23205492 0.13731046 0.17268898
0.23084332 0.13933776 0.17268898
0.229614 0.14135437 0.17268898
0.22836708 0.14336014 0.17268898
0.22710262 0.14535491 0.17268898
0.22582075 0.14733852 0.17268898
0.22452155 0.14931083 0.17268898
0.21890655 -0.14835843 0.1726661
0.22019763 -0.14643535 0.1726661
0.2214718 -0.14450102 0.1726661
0.222729 -0.14255561 0.1726661
0.2239691 -0.14059925 0.1726661
0.22519201 -0.13863212 0.1726661
0.22639765 -0.13665435 0.1726661
0.22758593 -0.13466609 0.1726661
0.22875673 -0.1326675 0.1726661
0.22990999 -0.13065873 0.1726661
0.2310456 -0.12863994 0.1726661
0.2321635 -0.12661128 0.1726661
0.23326358 -0.1245729 0.1726661
0.23434576 -0.12252496 0.1726661
0.23540998 -0.12046763 0.1726661
0.23645613 -0.11840105 0.1726661
0.23748413 -0.11632539 0.1726661
0.2384939 -0.1142408 0.1726661
0.2394854 -0.11214746 0.1726661
0.2404585 -0.1100455 0.1726661
0.24141318 -0.10793511 0.1726661
0.24234931 -0.10581643 0.1726661
0.24326687 -0.10368963 0.1726661
0.24416575 -0.10155489 0.1726661
0.2450459 -0.099412337 0.1726661
0.24590725 -0.097262166 0.1726661
0.24674974 -0.095104538 0.1726661
0.24757329 -0.092939608 0.1726661
0.24837786 -0.090767555 0.1726661
0.24916336 -0.088588528 0.1726661
0.24992974 -0.086402707 0.1726661
0.25067696 -0.084210262 0.1726661
0.25140494 -0.082011349 0.1726661
0.25211364 -0.079806149 0.1726661
0.252803 -0.077594832 0.1726661
0.25347292 -0.075377554 0.1726661
0.25412345 -0.073154494 0.1726661
0.25475445 -0.070925817 0.1726661
0.25536594 -0.068691708 0.1726661
0.25595781 -0.066452324 0.1726661
0.25653005 -0.064207837 0.1726661
0.25708258 -0.061958428 0.1726661
0.25761542 -0.059704266 0.1726661
0.25812849 -0.057445526 0.1726661
0.25862175 -0.055182375 0.1726661
0.25909516 -0.052914992 0.1726661
0.25954872 -0.050643548 0.1726661
0.25998235 -0.048368219 0.1726661
0.26039603 -0.04608918 0.1726661
0.26078975 -0.043806605 0.1726661
0.26116344 -0.041520666 0.1726661
0.26151711 -0.039231546 0.1726661
0.26185068 -0.036939412 0.1726661
0.26216421 -0.034644447 0.1726661
0.26245761 -0.032346822 0.1726661
0.26273087 -0.030046716 0.1726661
0.26298395 -0.027744306 0.1726661
0.26321688 -0.025439765 0.1726661
0.26342961 -0.023133274 0.1726661
0.26362213 -0.020825008 0.1726661
0.26379442 -0.018515144 0.1726661
0.26394647 -0.01620386 0.1726661
0.26407829 -0.013891332 0.1726661
0.26418981 -0.011577738 0.1726661
0.26428109 -0.0092632575 0.1726661
0.26435208 -0.006948065 0.1726661
0.26440281 -0.0046323393 0.1726661
0.26443323 -0.0023162586 0.1726661
0.2644434 0 0.1726661
0.26443323 0.0023162586 0.1726661
0.26440281 0.0046323393 0.1726661
0.26435208 0.006948065 0.1726661
0.26428109 0.0092632575 0.1726661
0.26418981 0.011577738 0.1726661
0.26407829 0.013891332 0.1726661
0.26394647 0.01620386 0.1726661
0.26379442 0.018515144 0.1726661
0.26362213 0.020825008 0.1726661
0.26342961 0.023133274 0.1726661
0.26321688 0.025439765 0.1726661
0.26298395 0.027744306 0.1726661
0.26273087 0.030046716 0.1726661
0.26245761 0.032346822 0.1726661
0.26216421 0.034644447 0.1726661
0.26185068 0.036939412 0.1726661
0.26151711 0.039231546 0.1726661
0.26116344 0.041520666 0.1726661
0.26078975 0.043806605 0.1726661
0.26039603 0.04608918 0.1726661
0.25998235 0.048368219 0.1726661
0.25954872 0.050643548 0.1726661
0.25909516 0.052914992 0.1726661
0.25862175 0.055182375 0.1726661
0.25812849 0.057445526 0.1726661
0.25761542 0.059704266 0.1726661
0.25708258 0.061958428 0.1726661
0.25653005 0.064207837 0.1726661
0.25595781 0.066452324 0.1726661
0.25536594 0.068691708 0.1726661
0.25475445 0.070925817 0.1726661
0.25412345 0.073154494 0.1726661
0.25347292 0.075377554 0.1726661
0.252803 0.077594832 0.1726661
0.25211364 0.079806149 0.1726661
0.25140494 0.082011349 0.1726661
0.25067696 0.084210262 0.1726661
0.24992974 0.086402707 0.1726661
0.24916336 0.088588528 0.1726661
0.24837786 0.090767555 0.1726661
0.24757329 0.092939608 0.1726661
0.24674974 0.095104538 0.1726661
0.24590725 0.097262166 0.1726661
0.2450459 0.099412337 0.1726661
0.24416575 0.10155489 0.1726661
0.24326687 0.10368963 0.1726661
0.24234931 0.10581643 0.1726661
0.24141318 0.10793511 0.1726661
0.2404585 0.1100455 0.1726661
0.2394854 0.11214746 0.1726661
0.2384939 0.1142408 0.1726661
0.23748413 0.11632539 0.1726661
0.23645613 0.11840105 0.1726661
0.23540998 0.12046763 0.1726661
0.23434576 0.12252496 0.1726661
0.23326358 0.1245729 0.1726661
0.2321635 0.12661128 0.1726661
0.2310456 0.12863994 0.1726661
0.22990999 0.13065873 0.1726661
0.22875673 0.1326675 0.1726661
0.22758593 0.13466609 0.1726661
0.22639765 0.13665435 0.1726661
0.22519201 0.13863212 0.1726661
0.2239691 0.14059925 0.1726661
0.222729 0.14255561 0.1726661
0.2214718 0.14450102 0.1726661
0.22019763 0.14643535 0.1726661
0.21890655 0.14835843 0.1726661
0.21759869 0.15027015 0.1726661
0.21344061 -0.14739865 0.17264386
0.2147235 -0.14552347 0.17264386
0.2159899 -0.14363714 0.17264386
0.21723972 -0.14173977 0.17264386
0.2184729 -0.13983153 0.17264386
0.21968929 -0.13791256 0.17264386
0.22088884 -0.13598301 0.17264386
0.22207144 -0.13404302 0.17264386
0.22323701 -0.13209276 0.17264386
0.22438544 -0.13013236 0.17264386
0.22551666 -0.12816198 0.17264386
0.22663058 -0.12618177 0.17264386
0.22772712 -0.12419187 0.17264386
0.22880618 -0.12219244 0.17264386
0.22986768 -0.12018365 0.17264386
0.23091155 -0.11816563 0.17264386
0.23193771 -0.11613854 0.17264386
0.23294607 -0.11410254 0.17264386
0.23393655 -0.11205779 0.17264386
0.2349091 -0.11000444 0.17264386
0.23586361 -0.10794266 0.17264386
0.23680003 -0.10587259 0.17264386
0.23771828 -0.1037944 0.17264386
0.2386183 -0.10170824 0.17264386
0.23950002 -0.099614277 0.17264386
0.24036334 -0.097512677 0.17264386
0.24120824 -0.095403597 0.17264386
0.24203463 -0.0932872 0.17264386
0.24284244 -0.091163635 0.17264386
0.24363163 -0.089033082 0.17264386
0.24440213 -0.086895704 0.17264386
0.24515386 -0.084751651 0.17264386
0.2458868 -0.0826011 0.17264386
0.24660087 -0.080444209 0.17264386
0.24729602 -0.078281142 0.17264386
0.24797221 -0.076112077 0.17264386
0.24862935 -0.07393717 0.17264386
0.24926743 -0.071756594 0.17264386
0.24988638 -0.069570504 0.17264386
0.25048617 -0.06737908 0.17264386
0.25106674 -0.065182492 0.17264386
0.25162804 -0.062980898 0.17264386
0.25217003 -0.060774472 0.17264386
0.25269267 -0.058563385 0.17264386
0.25319594 -0.056347806 0.17264386
0.25367978 -0.054127902 0.17264386
0.25414416 -0.051903844 0.17264386
0.25458902 -0.049675807 0.17264386
0.25501439 -0.047443956 0.17264386
0.25542015 -0.045208465 0.17264386
0.25580633 -0.04296951 0.17264386
0.2561729 -0.040727254 0.17264386
0.25651979 -0.038481873 0.17264386
0.25684702 -0.036233541 0.17264386
0.25715452 -0.03398243 0.17264386
0.25744233 -0.031728711 0.17264386
0.25771037 -0.029472558 0.17264386
0.25795862 -0.027214143 0.17264386
0.25818709 -0.024953641 0.17264386
0.25839576 -0.022691224 0.17264386
0.25858459 -0.020427065 0.17264386
0.2587536 -0.01816134 0.17264386
0.25890276 -0.015894223 0.17264386
0.25903204 -0.013625884 0.17264386
0.25914145 -0.011356501 0.17264386
0.25923097 -0.0090862466 0.17264386
0.25930062 -0.0068152952 0.17264386
0.25935036 -0.0045438204 0.17264386
0.25938022 -0.0022719975 0.17264386
0.25939018 0 0.17264386
0.25938022 0.0022719975 0.17264386
0.25935036 0.0045438204 0.17264386
0.25930062 0.0068152952 0.17264386
0.25923097 0.0090862466 0.17264386
0.25914145 0.011356501 0.17264386
0.25903204 0.013625884 0.17264386
0.25890276 0.015894223 0.17264386
0.2587536 0.01816134 0.17264386
0.25858459 0.020427065 0.17264386
0.25839576 0.022691224 0.17264386
0.25818709 0.024953641 0.17264386
0.25795862 0.027214143 0.17264386
0.25771037 0.029472558 0.17264386
0.25744233 0.031728711 0.17264386
0.25715452 0.03398243 0.17264386
0.25684702 0.036233541 0.17264386
0.25651979 0.038481873 0.17264386
0.2561729 0.040727254 0.17264386
0.25580633 0.04296951 0.17264386
0.25542015 0.045208465 0.17264386
0.25501439 0.047443956 0.17264386
0.25458902 0.049675807 0.17264386
0.25414416 0.051903844 0.17264386
0.25367978 0.054127902 0.17264386
0.25319594 0.056347806 0.17264386
0.25269267 0.058563385 0.17264386
0.25217003 0.060774472 0.17264386
0.25162804 0.062980898 0.17264386
0.25106674 0.065182492 0.17264386
0.25048617 0.06737908 0.17264386
0.24988638 0.069570504 0.17264386
0.24926743 0.071756594 0.17264386
0.24862935 0.07393717 0.17264386
0.24797221 0.076112077 0.17264386
0.24729602 0.078281142 0.17264386
0.24660087 0.080444209 0.17264386
0.2458868 0.0826011 0.17264386
0.24515386 0.084751651 0.17264386
0.24440213 0.086895704 0.17264386
0.24363163 0.089033082 0.17264386
0.24284244 0.091163635 0.17264386
0.24203463 0.0932872 0.17264386
0.24120824 0.095403597 0.17264386
0.24036334 0.097512677 0.17264386
0.23950002 0.099614277 0.17264386
0.2386183 0.10170824 0.17264386
0.23771828 0.1037944 0.17264386
0.23680003 0.10587259 0.17264386
0.23586361 0.10794266 0.17264386
0.2349091 0.11000444 0.17264386
0.23393655 0.11205779 0.17264386
0.23294607 0.11410254 0.17264386
0.23193771 0.11613854 0.17264386
0.23091155 0.11816563 0.17264386
0.22986768 0.12018365 0.17264386
0.22880618 0.12219244 0.17264386
0.22772712 0.12419187 0.17264386
0.22663058 0.12618177 0.17264386
0.22551666 0.12816198 0.17264386
0.22438544 0.13013236 0.17264386
0.22323701 0.13209276 0.17264386
0.22207144 0.13404302 0.17264386
0.22088884 0.13598301 0.17264386
0.21968929 0.13791256 0.17264386
0.2184729 0.13983153 0.17264386
0.21723972 0.14173977 0.17264386
0.2159899 0.14363714 0.17264386
0.2147235 0.14552347 0.17264386
0.21344061 0.14739865 0.17264386
0.21214136 0.14926252 0.17264386
0.206827 -0.14824867 0.17262219
0.20811757 -0.14643139 0.17262219
0.20939218 -0.14460286 0.17262219
0.21065073 -0.14276326 0.17262219
0.21189311 -0.1409127 0.17262219
0.21311924 -0.13905132 0.17262219
0.214329 -0.13717927 0.17262219
0.21552233 -0.1352967 0.17262219
0.21669914 -0.13340375 0.17262219
0.2178593 -0.13150057 0.17262219
0.21900275 -0.12958729 0.17262219
0.22012942 -0.12766407 0.17262219
0.22123918 -0.12573107 0.17262219
0.22233197 -0.12378842 0.17262219
0.2234077 -0.12183626 0.17262219
0.22446629 -0.11987476 0.17262219
0.22550766 -0.11790406 0.17262219
0.22653174 -0.11592432 0.17262219
0.22753842 -0.11393568 0.17262219
0.22852767 -0.1119383 0.17262219
0.22949935 -0.10993233 0.17262219
0.23045346 -0.10791793 0.17262219
0.23138987 -0.10589525 0.17262219
0.23230852 -0.10386445 0.17262219
0.23320937 -0.10182568 0.17262219
0.23409231 -0.099779084 0.17262219
0.23495729 -0.097724847 0.17262219
0.23580424 -0.095663108 0.17262219
0.23663312 -0.09359403 0.17262219
0.23744383 -0.091517769 0.17262219
0.23823632 -0.08943449 0.17262219
0.23901054 -0.087344348 0.17262219
0.23976642 -0.085247509 0.17262219
0.24050391 -0.083144121 0.17262219
0.24122295 -0.081034362 0.17262219
0.24192347 -0.078918383 0.17262219
0.24260543 -0.076796345 0.17262219
0.24326879 -0.074668422 0.17262219
0.24391347 -0.07253477 0.17262219
0.24453945 -0.070395544 0.17262219
0.24514666 -0.068250924 0.17262219
0.24573506 -0.066101067 0.17262219
0.24630462 -0.063946143 0.17262219
0.24685527 -0.061786309 0.17262219
0.24738699 -0.059621733 0.17262219
0.24789973 -0.057452586 0.17262219
0.24839345 -0.055279028 0.17262219
0.24886811 -0.05310123 0.17262219
0.24932368 -0.050919358 0.17262219
0.24976011 -0.048733581 0.17262219
0.25017738 -0.046544064 0.17262219
0.25057548 -0.044350974 0.17262219
0.25095433 -0.042154483 0.17262219
0.25131392 -0.039954759 0.17262219
0.25165427 -0.037751969 0.17262219
0.25197527 -0.03554628 0.17262219
0.25227696 -0.033337869 0.17262219
0.25255927 -0.031126896 0.17262219
0.25282225 -0.028913537 0.17262219
0.25306579 -0.026697958 0.17262219
0.25328994 -0.024480332 0.17262219
0.25349465 -0.022260828 0.17262219
0.2536799 -0.020039614 0.17262219
0.25384569 -0.017816866 0.17262219
0.25399202 -0.015592748 0.17262219
0.25411883 -0.013367435 0.17262219
0.25422618 -0.011141096 0.17262219
0.25431401 -0.0089139035 0.17262219
0.25438234 -0.0066860258 0.17262219
0.25443113 -0.0044576353 0.17262219
0.25446042 -0.0022289034 0.17262219
0.2544702 0 0.17262219
0.25446042 0.0022289034 0.17262219
0.25443113 0.0044576353 0.17262219
0.25438234 0.0066860258 0.17262219
0.25431401 0.0089139035 0.17262219
0.25422618 0.011141096 0.17262219
0.25411883 0.013367435 0.17262219
0.25399202 0.015592748 0.17262219
0.25384569 0.017816866 0.17262219
0.2536799 0.020039614 0.17262219
0.25349465 0.022260828 0.17262219
0.25328994 0.024480332 0.17262219
0.25306579 0.026697958 0.17262219
0.25282225 0.028913537 0.17262219
0.25255927 0.031126896 0.17262219
0.25227696 0.033337869 0.17262219
0.25197527 0.03554628 0.17262219
0.25165427 0.037751969 0.17262219
0.25131392 0.039954759 0.17262219
0.25095433 0.042154483 0.17262219
0.25057548 0.044350974 0.17262219
0.25017738 0.046544064 0.17262219
0.24976011 0.048733581 0.17262219
0.24932368 0.050919358 0.17262219
0.24886811 0.05310123 0.17262219
0.24839345 0.055279028 0.17262219
0.24789973 0.057452586 0.17262219
0.24738699 0.059621733 0.17262219
0.24685527 0.061786309 0.17262219
0.24630462 0.063946143 0.17262219
0.24573506 0.066101067 0.17262219
0.24514666 0.068250924 0.17262219
0.24453945 0.070395544 0.17262219
0.24391347 0.07253477 0.17262219
0.24326879 0.074668422 0.17262219
0.24260543 0.076796345 0.17262219
0.24192347 0.078918383 0.17262219
0.24122295 0.081034362 0.17262219
0.24050391 0.083144121 0.17262219
0.23976642 0.085247509 0.17262219
0.23901054 0.087344348 0.17262219
0.23823632 0.08943449 0.17262219
0.23744383 0.091517769 0.17262219
0.23663312 0.09359403 0.17262219
0.23580424 0.095663108 0.17262219
0.23495729 0.097724847 0.17262219
0.23409231 0.099779084 0.17262219
0.23320937 0.10182568 0.17262219
0.23230852 0.10386445 0.17262219
0.23138987 0.10589525 0.17262219
0.23045346 0.10791793 0.17262219
0.22949935 0.10993233 0.17262219
0.22852767 0.1119383 0.17262219
0.22753842 0.11393568 0.17262219
0.22653174 0.11592432 0.17262219
0.22550766 0.11790406 0.17262219
0.22446629 0.11987476 0.17262219
0.2234077 0.12183626 0.17262219
0.22233197 0.12378842 0.17262219
0.22123918 0.12573107 0.17262219
0.22012942 0.12766407 0.17262219
0.21900275 0.12958729 0.17262219
0.2178593 0.13150057 0.17262219
0.21669914 0.13340375 0.17262219
0.21552233 0.1352967 0.17262219
0.214329 0.13717927 0.17262219
0.21311924 0.13905132 0.17262219
0.21189311 0.1409127 0.17262219
0.21065073 0.14276326 0.17262219
0.20939218 0.14460286 0.17262219
0.20811757 0.14643139 0.17262219
0.206827 0.14824867 0.17262219
0.20552056 0.15005457 0.17262219
0.20165299 -0.1472308 0.17260383
0.20293486 -0.14545888 0.17260385
0.20420115 -0.14367579 0.17260385
0.20545179 -0.14188169 0.17260385
0.20668665 -0.1400767 0.17260385
0.20790565 -0.13826096 0.17260386
0.20910871 -0.13643461 0.17260386
0.21029572 -0.13459781 0.17260386
0.21146661 -0.13275066 0.17260388
0.21262126 -0.13089335 0.17260388
0.2137596 -0.12902598 0.17260388
0.21488154 -0.1271487 0.17260389
0.215987 -0.12526169 0.17260389
0.21707588 -0.12336506 0.17260389
0.21814813 -0.12145896 0.17260389
0.21920362 -0.11954354 0.17260391
0.22024229 -0.11761896 0.17260391
0.22126408 -0.11568535 0.17260391
0.22226888 -0.11374287 0.17260391
0.22325663 -0.11179165 0.17260392
0.22422725 -0.10983186 0.17260392
0.22518067 -0.10786364 0.17260392
0.22611682 -0.10588715 0.17260392
0.22703561 -0.10390253 0.17260394
0.22793698 -0.10190994 0.17260394
0.22882088 -0.099909537 0.17260394
0.22968721 -0.097901471 0.17260394
0.23053592 -0.095885888 0.17260394
0.23136695 -0.093862943 0.17260395
0.23218022 -0.091832802 0.17260395
0.23297568 -0.089795619 0.17260395
0.23375326 -0.087751538 0.17260395
0.23451293 -0.085700735 0.17260395
0.23525459 -0.083643347 0.17260396
0.23597819 -0.081579544 0.17260396
0.2366837 -0.079509489 0.17260396
0.23737104 -0.077433325 0.17260396
0.23804018 -0.075351223 0.17260396
0.23869106 -0.07326334 0.17260396
0.23932362 -0.071169838 0.17260398
0.23993781 -0.069070876 0.17260398
0.24053361 -0.066966616 0.17260398
0.24111094 -0.064857215 0.17260398
0.24166977 -0.062742837 0.17260398
0.24221008 -0.060623642 0.17260398
0.24273179 -0.058499802 0.17260398
0.24323489 -0.056371473 0.17260399
0.24371931 -0.054238815 0.17260399
0.24418505 -0.052102 0.17260399
0.24463204 -0.049961187 0.17260399
0.24506027 -0.047816537 0.17260399
0.24546969 -0.045668222 0.17260399
0.24586028 -0.043516405 0.17260399
0.24623202 -0.041361246 0.17260399
0.24658485 -0.039202914 0.17260399
0.24691878 -0.037041575 0.17260401
0.24723375 -0.034877393 0.17260401
0.24752976 -0.032710537 0.17260401
0.24780677 -0.030541169 0.17260401
0.24806479 -0.02836946 0.17260401
0.24830376 -0.026195573 0.17260401
0.24852368 -0.024019677 0.17260401
0.24872454 -0.021841938 0.17260401
0.24890631 -0.019662522 0.17260401
0.24906899 -0.017481599 0.17260401
0.24921255 -0.015299334 0.17260401
0.249337 -0.013115896 0.17260401
0.24944232 -0.010931451 0.17260401
0.2495285 -0.0087461667 0.17260401
0.24959554 -0.0065602125 0.17260401
0.24964342 -0.0043737548 0.17260401
0.24967216 -0.0021869612 0.17260401
0.24968173 0 0.17260401
0.24967216 0.0021869612 0.17260401
0.24964342 0.0043737548 0.17260401
0.24959554 0.0065602125 0.17260401
0.2495285 0.0087461676 0.17260401
0.24944232 0.010931451 0.17260401
0.249337 0.013115896 0.17260401
0.24921255 0.015299334 0.17260401
0.24906899 0.017481599 0.17260401
0.24890631 0.019662522 0.17260401
0.24872454 0.021841938 0.17260401
0.24852368 0.024019677 0.17260401
0.24830376 0.026195573 0.17260401
0.24806479 0.02836946 0.17260401
0.24780677 0.03054117 0.17260401
0.24752976 0.032710537 0.17260401
0.24723375 0.034877393 0.17260401
0.24691878 0.037041575 0.17260401
0.24658486 0.039202914 0.17260401
0.24623202 0.041361246 0.17260399
0.24586029 0.043516405 0.17260399
0.24546969 0.045668222 0.17260399
0.24506027 0.047816537 0.17260399
0.24463204 0.049961187 0.17260399
0.24418505 0.052102 0.17260399
0.24371931 0.054238819 0.17260399
0.24323489 0.056371473 0.17260399
0.24273179 0.058499802 0.17260399
0.24221008 0.060623646 0.17260399
0.24166979 0.062742837 0.17260398
0.24111095 0.064857215 0.17260398
0.24053361 0.066966616 0.17260398
0.23993781 0.069070876 0.17260398
0.23932362 0.071169838 0.17260398
0.23869106 0.073263347 0.17260398
0.23804019 0.075351223 0.17260398
0.23737106 0.077433325 0.17260396
0.23668371 0.079509489 0.17260396
0.2359782 0.081579551 0.17260396
0.23525459 0.083643347 0.17260396
0.23451293 0.085700735 0.17260396
0.23375328 0.087751545 0.17260395
0.23297569 0.089795619 0.17260395
0.23218022 0.091832809 0.17260395
0.23136695 0.093862943 0.17260395
0.23053592 0.095885888 0.17260395
0.22968721 0.097901471 0.17260394
0.22882089 0.099909544 0.17260394
0.227937 0.10190995 0.17260394
0.22703561 0.10390253 0.17260394
0.22611682 0.10588715 0.17260394
0.22518069 0.10786364 0.17260392
0.22422726 0.10983186 0.17260392
0.22325663 0.11179166 0.17260392
0.22226888 0.11374287 0.17260392
0.22126408 0.11568535 0.17260391
0.22024231 0.11761896 0.17260391
0.21920362 0.11954355 0.17260391
0.21814813 0.12145896 0.17260391
0.2170759 0.12336506 0.17260389
0.21598701 0.12526169 0.17260389
0.21488155 0.12714872 0.17260389
0.21375962 0.12902598 0.17260389
0.21262127 0.13089335 0.17260388
0.21146661 0.13275068 0.17260388
0.21029574 0.13459781 0.17260388
0.20910871 0.13643463 0.17260386
0.20790567 0.13826098 0.17260386
0.20668665 0.14007671 0.17260386
0.20545179 0.14188169 0.17260386
0.20420116 0.1436758 0.17260385
0.20293486 0.14545888 0.17260385
0.201653 0.1472308 0.17260385
0.20035566 0.14899144 0.17260383
0.19531924 -0.14792055 0.17258324
0.19660738 -0.14620407 0.17258325
0.19788045 -0.14447638 0.17258325
0.19913833 -0.14273761 0.17258325
0.20038094 -0.14098789 0.17258327
0.20160817 -0.13922735 0.17258327
0.20281993 -0.13745613 0.17258327
0.20401613 -0.13567436 0.17258328
0.20519668 -0.13388218 0.17258328
0.20636149 -0.13207974 0.17258328
0.20751046 -0.13026714 0.17258328
0.20864351 -0.12844457 0.1725833
0.20976056 -0.12661214 0.1725833
0.21086152 -0.12476999 0.1725833
0.21194629 -0.12291828 0.1725833
0.21301481 -0.12105713 0.17258331
0.21406698 -0.11918669 0.17258331
0.21510273 -0.11730711 0.17258331
0.21612197 -0.11541853 0.17258333
0.21712464 -0.11352109 0.17258333
0.21811065 -0.11161494 0.17258333
0.21907991 -0.10970023 0.17258333
0.22003238 -0.10777711 0.17258334
0.22096796 -0.10584571 0.17258334
0.22188659 -0.1039062 0.17258334
0.2227882 -0.10195871 0.17258334
0.22367272 -0.1000034 0.17258334
0.22454007 -0.098040417 0.17258336
0.2253902 -0.096069917 0.17258336
0.22622302 -0.094092041 0.17258336
0.2270385 -0.092106946 0.17258336
0.22783656 -0.09011478 0.17258336
0.22861715 -0.088115707 0.17258337
0.22938018 -0.086109869 0.17258337
0.23012562 -0.08409743 0.17258337
0.23085341 -0.082078539 0.17258337
0.23156348 -0.080053344 0.17258337
0.23225579 -0.078022011 0.17258339
0.23293027 -0.075984694 0.17258339
0.23358689 -0.073941544 0.17258339
0.23422559 -0.071892723 0.17258339
0.23484632 -0.069838382 0.17258339
0.23544903 -0.067778684 0.17258339
0.23603366 -0.065713793 0.1725834
0.23660021 -0.06364385 0.1725834
0.23714858 -0.061569031 0.1725834
0.23767878 -0.059489489 0.1725834
0.23819073 -0.057405379 0.1725834
0.2386844 -0.055316865 0.1725834
0.23915978 -0.053224109 0.1725834
0.2396168 -0.05112727 0.1725834
0.24005543 -0.049026504 0.17258342
0.24047564 -0.04692198 0.17258342
0.2408774 -0.044813856 0.17258342
0.24126069 -0.042702291 0.17258342
0.24162547 -0.040587455 0.17258342
0.24197172 -0.038469501 0.17258342
0.24229938 -0.036348596 0.17258342
0.24260847 -0.034224901 0.17258342
0.24289894 -0.032098584 0.17258342
0.24317077 -0.0299698 0.17258342
0.24342395 -0.02783872 0.17258342
0.24365845 -0.025705503 0.17258342
0.24387427 -0.023570312 0.17258342
0.24407136 -0.021433316 0.17258343
0.24424973 -0.019294674 0.17258343
0.24440937 -0.01715455 0.17258343
0.24455024 -0.015013112 0.17258343
0.24467237 -0.012870521 0.17258343
0.24477571 -0.010726944 0.17258343
0.24486029 -0.0085825427 0.17258343
0.24492607 -0.0064374832 0.17258343
0.24497306 -0.0042919298 0.17258343
0.24500126 -0.0021460473 0.17258343
0.24501064 0 0.17258343
0.24500126 0.0021460473 0.17258343
0.24497306 0.0042919298 0.17258343
0.24492607 0.0064374832 0.17258343
0.24486029 0.0085825427 0.17258343
0.24477571 0.010726944 0.17258343
0.24467237 0.012870521 0.17258343
0.24455024 0.015013112 0.17258343
0.24440937 0.01715455 0.17258343
0.24424973 0.019294674 0.17258343
0.24407136 0.021433316 0.17258343
0.24387427 0.023570314 0.17258343
0.24365845 0.025705503 0.17258343
0.24342395 0.02783872 0.17258342
0.24317077 0.0299698 0.17258342
0.24289894 0.032098584 0.17258342
0.24260847 0.034224901 0.17258342
0.24229939 0.036348596 0.17258342
0.24197172 0.038469501 0.17258342
0.24162547 0.040587455 0.17258342
0.24126069 0.042702291 0.17258342
0.2408774 0.044813856 0.17258342
0.24047564 0.04692198 0.17258342
0.24005543 0.049026504 0.17258342
0.2396168 0.05112727 0.17258342
0.23915978 0.053224109 0.1725834
0.23868442 0.055316865 0.1725834
0.23819073 0.057405379 0.1725834
0.23767878 0.059489489 0.1725834
0.2371486 0.061569035 0.1725834
0.23660021 0.063643858 0.1725834
0.23603368 0.065713793 0.1725834
0.23544903 0.067778692 0.1725834
0.23484632 0.069838382 0.17258339
0.2342256 0.071892723 0.17258339
0.23358689 0.073941544 0.17258339
0.23293029 0.075984694 0.17258339
0.23225579 0.078022011 0.17258339
0.23156348 0.080053344 0.17258339
0.23085341 0.082078539 0.17258337
0.23012562 0.08409743 0.17258337
0.22938019 0.086109877 0.17258337
0.22861715 0.088115707 0.17258337
0.22783656 0.090114787 0.17258337
0.22703852 0.092106946 0.17258337
0.22622304 0.094092041 0.17258336
0.2253902 0.096069917 0.17258336
0.22454007 0.098040424 0.17258336
0.22367272 0.10000341 0.17258336
0.2227882 0.10195871 0.17258334
0.22188661 0.1039062 0.17258334
0.22096796 0.10584572 0.17258334
0.22003238 0.10777711 0.17258334
0.21907993 0.10970024 0.17258334
0.21811065 0.11161495 0.17258333
0.21712464 0.11352109 0.17258333
0.21612197 0.11541853 0.17258333
0.21510273 0.11730711 0.17258333
0.21406698 0.11918669 0.17258331
0.21301481 0.12105713 0.17258331
0.21194629 0.12291828 0.17258331
0.21086152 0.12477 0.17258331
0.20976056 0.12661214 0.1725833
0.20864353 0.12844458 0.1725833
0.20751047 0.13026716 0.1725833
0.20636149 0.13207974 0.17258328
0.20519668 0.13388218 0.17258328
0.20401613 0.13567436 0.17258328
0.20281993 0.13745613 0.17258328
0.20160817 0.13922736 0.17258327
0.20038094 0.1409879 0.17258327
0.19913833 0.14273761 0.17258327
0.19788045 0.1444764 0.17258325
0.19660738 0.14620408 0.17258325
0.19531924 0.14792055 0.17258325
0.1940161 0.14962567 0.17258324
0.18911591 -0.14850634 0.17256317
0.19040942 -0.14684419 0.17256317
0.19168833 -0.14517076 0.17256318
0.19295253 -0.1434862 0.17256318
0.19420193 -0.14179063 0.17256318
0.19543643 -0.14008418 0.17256318
0.19665593 -0.13836698 0.1725632
0.19786036 -0.13663918 0.1725632
0.19904959 -0.13490088 0.1725632
0.20022355 -0.13315223 0.17256321
0.20138216 -0.13139337 0.17256321
0.20252532 -0.12962443 0.17256321
0.20365293 -0.12784554 0.17256323
0.20476492 -0.12605685 0.17256323
0.2058612 -0.12425847 0.17256323
0.20694169 -0.12245058 0.17256323
0.20800629 -0.12063328 0.17256324
0.20905495 -0.11880673 0.17256324
0.21008757 -0.11697106 0.17256324
0.21110407 -0.11512642 0.17256324
0.21210435 -0.11327295 0.17256325
0.21308838 -0.11141078 0.17256325
0.21405606 -0.10954007 0.17256325
0.21500732 -0.10766096 0.17256325
0.21594207 -0.10577358 0.17256327
0.21686026 -0.10387809 0.17256327
0.21776181 -0.10197463 0.17256327
0.21864666 -0.10006334 0.17256327
0.21951473 -0.098144382 0.17256327
0.22036596 -0.096217886 0.17256328
0.22120029 -0.094284013 0.17256328
0.22201763 -0.092342906 0.17256328
0.22281796 -0.090394713 0.17256328
0.22360118 -0.088439584 0.17256328
0.22436725 -0.086477675 0.1725633
0.2251161 -0.084509127 0.1725633
0.22584768 -0.082534097 0.1725633
0.22656193 -0.080552734 0.1725633
0.22725882 -0.078565188 0.1725633
0.22793825 -0.076571614 0.17256331
0.2286002 -0.074572168 0.17256331
0.2292446 -0.072567001 0.17256331
0.22987144 -0.070556268 0.17256331
0.23048063 -0.068540119 0.17256331
0.23107213 -0.066518709 0.17256331
0.2316459 -0.064492196 0.17256333
0.2322019 -0.062460739 0.17256333
0.23274009 -0.060424488 0.17256333
0.23326042 -0.058383603 0.17256333
0.23376286 -0.056338236 0.17256333
0.23424737 -0.054288547 0.17256333
0.2347139 -0.052234694 0.17256333
0.23516242 -0.050176833 0.17256333
0.2355929 -0.048115123 0.17256334
0.23600531 -0.046049722 0.17256334
0.23639961 -0.043980785 0.17256334
0.23677576 -0.041908473 0.17256334
0.23713376 -0.03983295 0.17256334
0.23747356 -0.037754368 0.17256334
0.23779514 -0.035672892 0.17256334
0.23809847 -0.033588674 0.17256334
0.23838355 -0.031501882 0.17256334
0.23865034 -0.029412674 0.17256334
0.2388988 -0.02732121 0.17256334
0.23912895 -0.025227647 0.17256334
0.23934074 -0.023132151 0.17256334
0.23953417 -0.02103488 0.17256336
0.23970923 -0.018935993 0.17256336
0.2398659 -0.016835654 0.17256336
0.24000417 -0.014734024 0.17256336
0.24012402 -0.012631264 0.17256336
0.24022543 -0.010527534 0.17256336
0.24030843 -0.0084229968 0.17256336
0.24037299 -0.0063178129 0.17256336
0.2404191 -0.0042121448 0.17256336
0.24044678 -0.0021061532 0.17256336
0.240456 0 0.17256336
0.24044678 0.0021061532 0.17256336
0.2404191 0.0042121448 0.17256336
0.24037299 0.0063178129 0.17256336
0.24030843 0.0084229968 0.17256336
0.24022543 0.010527534 0.17256336
0.24012402 0.012631264 0.17256336
0.24000417 0.014734024 0.17256336
0.2398659 0.016835654 0.17256336
0.23970923 0.018935993 0.17256336
0.23953418 0.02103488 0.17256336
0.23934074 0.023132151 0.17256336
0.23912895 0.025227647 0.17256334
0.2388988 0.02732121 0.17256334
0.23865034 0.029412676 0.17256334
0.23838355 0.031501882 0.17256334
0.23809847 0.033588674 0.17256334
0.23779514 0.035672892 0.17256334
0.23747356 0.037754368 0.17256334
0.23713376 0.03983295 0.17256334
0.23677576 0.041908477 0.17256334
0.23639961 0.043980785 0.17256334
0.23600531 0.046049722 0.17256334
0.2355929 0.048115123 0.17256334
0.23516242 0.050176833 0.17256334
0.2347139 0.052234694 0.17256333
0.23424737 0.054288547 0.17256333
0.23376286 0.056338239 0.17256333
0.23326042 0.058383603 0.17256333
0.2327401 0.060424492 0.17256333
0.2322019 0.062460743 0.17256333
0.23164591 0.064492203 0.17256333
0.23107213 0.066518709 0.17256333
0.23048063 0.068540119 0.17256331
0.22987144 0.070556268 0.17256331
0.22924462 0.072567001 0.17256331
0.2286002 0.074572168 0.17256331
0.22793825 0.076571614 0.17256331
0.22725882 0.078565188 0.17256331
0.22656195 0.080552734 0.1725633
0.22584769 0.082534097 0.1725633
0.2251161 0.084509127 0.1725633
0.22436725 0.086477675 0.1725633
0.22360118 0.088439591 0.1725633
0.22281796 0.090394713 0.1725633
0.22201765 0.092342906 0.17256328
0.22120029 0.09428402 0.17256328
0.22036597 0.096217893 0.17256328
0.21951474 0.098144382 0.17256328
0.21864666 0.10006335 0.17256328
0.21776181 0.10197463 0.17256327
0.21686026 0.10387809 0.17256327
0.21594207 0.10577358 0.17256327
0.21500732 0.10766096 0.17256327
0.21405606 0.10954008 0.17256325
0.21308839 0.11141079 0.17256325
0.21210437 0.11327295 0.17256325
0.21110407 0.11512642 0.17256325
0.21008757 0.11697106 0.17256324
0.20905496 0.11880673 0.17256324
0.20800631 0.12063328 0.17256324
0.20694169 0.12245058 0.17256324
0.20586121 0.12425848 0.17256323
0.20476493 0.12605685 0.17256323
0.20365293 0.12784554 0.17256323
0.20252532 0.12962443 0.17256323
0.20138216 0.13139337 0.17256321
0.20022357 0.13315223 0.17256321
0.19904959 0.13490088 0.17256321
0.19786036 0.13663918 0.1725632
0.19665594 0.138367 0.1725632
0.19543643 0.14008419 0.1725632
0.19420195 0.14179064 0.1725632
0.19295254 0.1434862 0.17256318
0.19168834 0.14517078 0.17256318
0.19040944 0.14684419 0.17256318
0.18911591 0.14850636 0.17256317
0.18780789 0.15015712 0.17256317
0.18433753 -0.14738248 0.17254359
0.1856214 -0.14576222 0.17254359
0.186891 -0.14413078 0.17254359
0.18814628 -0.14248827 0.1725436
0.18938713 -0.14083484 0.1725436
0.19061343 -0.1391706 0.1725436
0.19182512 -0.13749568 0.17254362
0.19302209 -0.13581021 0.17254362
0.19420426 -0.13411433 0.17254362
0.19537152 -0.13240816 0.17254362
0.19652379 -0.13069183 0.17254363
0.19766098 -0.12896547 0.17254363
0.19878301 -0.1272292 0.17254363
0.19988979 -0.12548319 0.17254364
0.20098124 -0.12372755 0.17254364
0.20205726 -0.12196241 0.17254364
0.20311779 -0.12018791 0.17254364
0.20416272 -0.11840419 0.17254366
0.205192 -0.1166114 0.17254366
0.20620553 -0.11480965 0.17254366
0.20720324 -0.1129991 0.17254366
0.20818506 -0.11117987 0.17254367
0.2091509 -0.10935211 0.17254367
0.2101007 -0.10751597 0.17254367
0.21103437 -0.10567158 0.17254367
0.21195185 -0.10381907 0.17254369
0.21285307 -0.10195861 0.17254369
0.21373798 -0.10009032 0.17254369
0.21460646 -0.098214351 0.17254369
0.2154585 -0.096330851 0.17254369
0.21629401 -0.094439954 0.1725437
0.2171129 -0.092541814 0.1725437
0.21791515 -0.090636581 0.1725437
0.21870068 -0.088724382 0.1725437
0.21946943 -0.086805381 0.1725437
0.22022134 -0.084879726 0.17254372
0.22095637 -0.082947552 0.17254372
0.22167443 -0.081009015 0.17254372
0.22237548 -0.079064265 0.17254372
0.22305948 -0.077113442 0.17254372
0.22372636 -0.075156711 0.17254373
0.22437608 -0.073194213 0.17254373
0.22500859 -0.071226098 0.17254373
0.22562383 -0.069252513 0.17254373
0.22622176 -0.067273617 0.17254373
0.22680233 -0.065289564 0.17254373
0.22736551 -0.063300498 0.17254373
0.22791123 -0.061306581 0.17254375
0.22843948 -0.059307955 0.17254375
0.2289502 -0.057304781 0.17254375
0.22944334 -0.055297207 0.17254375
0.2299189 -0.053285394 0.17254375
0.23037681 -0.05126949 0.17254375
0.23081703 -0.049249656 0.17254375
0.23123957 -0.047226042 0.17254375
0.23164435 -0.045198806 0.17254376
0.23203136 -0.043168098 0.17254376
0.23240057 -0.041134082 0.17254376
0.23275195 -0.039096907 0.17254376
0.23308547 -0.037056737 0.17254376
0.23340112 -0.03501372 0.17254376
0.23369884 -0.032968018 0.17254376
0.23397864 -0.030919785 0.17254376
0.2342405 -0.028869182 0.17254376
0.23448439 -0.026816363 0.17254376
0.23471028 -0.024761487 0.17254376
0.23491816 -0.022704711 0.17254376
0.23510802 -0.020646192 0.17254376
0.23527984 -0.01858609 0.17254376
0.23543361 -0.016524563 0.17254378
0.23556931 -0.014461766 0.17254378
0.23568696 -0.012397861 0.17254378
0.2357865 -0.010333004 0.17254378
0.23586796 -0.0082673552 0.17254378
0.23593134 -0.0062010712 0.17254378
0.23597659 -0.0041343118 0.17254378
0.23600376 -0.0020672353 0.17254378
0.23601282 0 0.17254378
0.23600376 0.0020672353 0.17254378
0.23597659 0.0041343118 0.17254378
0.23593134 0.0062010712 0.17254378
0.23586796 0.0082673552 0.17254378
0.23578651 0.010333004 0.17254378
0.23568696 0.012397861 0.17254378
0.23556931 0.014461766 0.17254378
0.23543361 0.016524563 0.17254378
0.23527984 0.01858609 0.17254378
0.23510802 0.020646192 0.17254376
0.23491816 0.022704711 0.17254376
0.23471028 0.024761487 0.17254376
0.23448439 0.026816363 0.17254376
0.2342405 0.028869182 0.17254376
0.23397866 0.030919787 0.17254376
0.23369884 0.032968018 0.17254376
0.23340112 0.03501372 0.17254376
0.23308548 0.037056737 0.17254376
0.23275195 0.039096911 0.17254376
0.23240058 0.041134082 0.17254376
0.23203136 0.043168098 0.17254376
0.23164435 0.045198806 0.17254376
0.23123957 0.047226042 0.17254376
0.23081705 0.049249656 0.17254375
0.23037681 0.051269494 0.17254375
0.2299189 0.053285394 0.17254375
0.22944336 0.055297211 0.17254375
0.2289502 0.057304781 0.17254375
0.22843948 0.059307955 0.17254375
0.22791123 0.061306581 0.17254375
0.22736551 0.063300498 0.17254375
0.22680233 0.065289564 0.17254375
0.22622176 0.067273624 0.17254373
0.22562383 0.069252513 0.17254373
0.22500859 0.071226098 0.17254373
0.22437608 0.073194213 0.17254373
0.22372636 0.075156711 0.17254373
0.22305949 0.07711345 0.17254373
0.22237548 0.079064265 0.17254372
0.22167443 0.081009015 0.17254372
0.22095637 0.082947552 0.17254372
0.22022136 0.084879726 0.17254372
0.21946944 0.086805388 0.17254372
0.21870069 0.08872439 0.17254372
0.21791516 0.090636581 0.1725437
0.21711291 0.092541821 0.1725437
0.21629401 0.094439961 0.1725437
0.2154585 0.096330851 0.1725437
0.21460648 0.098214358 0.1725437
0.21373798 0.10009032 0.17254369
0.21285309 0.10195861 0.17254369
0.21195187 0.10381908 0.17254369
0.21103437 0.10567158 0.17254369
0.2101007 0.10751598 0.17254367
0.2091509 0.10935212 0.17254367
0.20818506 0.11117987 0.17254367
0.20720324 0.1129991 0.17254367
0.20620553 0.11480965 0.17254366
0.205192 0.1166114 0.17254366
0.20416273 0.11840419 0.17254366
0.20311779 0.12018792 0.17254366
0.20205727 0.12196241 0.17254364
0.20098124 0.12372755 0.17254364
0.19988979 0.12548319 0.17254364
0.19878303 0.12722921 0.17254364
0.197661 0.12896547 0.17254363
0.1965238 0.13069183 0.17254363
0.19537152 0.13240816 0.17254363
0.19420426 0.13411434 0.17254363
0.1930221 0.13581023 0.17254362
0.19182514 0.13749568 0.17254362
0.19061345 0.1391706 0.17254362
0.18938713 0.14083485 0.1725436
0.18814629 0.14248829 0.1725436
0.186891 0.14413078 0.1725436
0.1856214 0.14576223 0.17254359
0.18433754 0.14738248 0.17254359
0.18303955 0.14899145 0.17254359
0.17838848 -0.14782208 0.17252447
0.17967641 -0.14625391 0.17252447
0.18095057 -0.14467451 0.17252447
0.18221083 -0.14308402 0.17252448
0.18345712 -0.14148256 0.17252448
0.18468933 -0.13987023 0.17252448
0.18590738 -0.13824718 0.1725245
0.18711115 -0.13661352 0.1725245
0.18830058 -0.13496937 0.1725245
0.18947555 -0.13331488 0.17252451
0.19063599 -0.13165015 0.17252451
0.1917818 -0.12997532 0.17252451
0.19291291 -0.12829052 0.17252451
0.19402921 -0.12659588 0.17252453
0.19513063 -0.12489153 0.17252453
0.19621707 -0.12317759 0.17252453
0.19728845 -0.1214542 0.17252454
0.19834471 -0.11972149 0.17252454
0.19938575 -0.11797961 0.17252454
0.20041148 -0.11622866 0.17252454
0.20142184 -0.11446881 0.17252456
0.20241676 -0.11270016 0.17252456
0.20339614 -0.11092287 0.17252456
0.20435992 -0.10913708 0.17252456
0.20530801 -0.10734291 0.17252457
0.20624036 -0.1055405 0.17252457
0.20715688 -0.10372999 0.17252457
0.20805751 -0.10191153 0.17252457
0.20894217 -0.10008524 0.17252457
0.20981081 -0.098251283 0.17252459
0.21066335 -0.096409783 0.17252459
0.21149972 -0.094560891 0.17252459
0.21231987 -0.092704743 0.17252459
0.21312372 -0.09084148 0.17252459
0.21391124 -0.088971242 0.1725246
0.21468233 -0.08709418 0.1725246
0.21543695 -0.085210443 0.1725246
0.21617505 -0.083320163 0.1725246
0.21689656 -0.081423491 0.1725246
0.21760143 -0.079520576 0.17252462
0.21828961 -0.077611558 0.17252462
0.21896105 -0.07569658 0.17252462
0.21961567 -0.073775798 0.17252462
0.22025345 -0.071849361 0.17252462
0.22087434 -0.069917403 0.17252462
0.22147827 -0.067980088 0.17252463
0.22206521 -0.066037551 0.17252463
0.22263512 -0.064089946 0.17252463
0.22318794 -0.062137432 0.17252463
0.22372365 -0.060180146 0.17252463
0.22424218 -0.058218244 0.17252463
0.22474352 -0.056251876 0.17252463
0.22522761 -0.05428119 0.17252465
0.22569442 -0.052306343 0.17252465
0.22614391 -0.05032748 0.17252465
0.22657606 -0.048344754 0.17252465
0.22699082 -0.046358321 0.17252465
0.22738817 -0.04436833 0.17252465
0.22776808 -0.042374939 0.17252465
0.2281305 -0.040378295 0.17252465
0.22847542 -0.038378552 0.17252465
0.22880282 -0.036375865 0.17252465
0.22911265 -0.034370385 0.17252466
0.22940493 -0.032362271 0.17252466
0.22967958 -0.030351672 0.17252466
0.22993663 -0.028338745 0.17252466
0.23017602 -0.026323644 0.17252466
0.23039776 -0.024306525 0.17252466
0.23060183 -0.02228754 0.17252466
0.2307882 -0.020266844 0.17252466
0.23095687 -0.018244594 0.17252466
0.2311078 -0.016220944 0.17252466
0.23124102 -0.014196049 0.17252466
0.2313565 -0.012170065 0.17252466
0.23145422 -0.010143148 0.17252466
0.23153418 -0.0081154527 0.17252466
0.23159638 -0.0060871341 0.17252466
0.23164082 -0.0040583489 0.17252466
0.23166747 -0.0020292522 0.17252466
0.23167637 0 0.17252466
0.23166747 0.0020292522 0.17252466
0.23164082 0.0040583489 0.17252466
0.23159638 0.0060871341 0.17252466
0.23153418 0.0081154527 0.17252466
0.23145422 0.010143148 0.17252466
0.2313565 0.012170065 0.17252466
0.23124102 0.014196049 0.17252466
0.23110782 0.016220944 0.17252466
0.23095687 0.018244594 0.17252466
0.2307882 0.020266844 0.17252466
0.23060183 0.02228754 0.17252466
0.23039776 0.024306525 0.17252466
0.23017603 0.026323644 0.17252466
0.22993663 0.028338747 0.17252466
0.22967958 0.030351672 0.17252466
0.22940493 0.032362271 0.17252466
0.22911265 0.034370385 0.17252466
0.22880282 0.036375865 0.17252466
0.22847542 0.038378552 0.17252465
0.2281305 0.040378295 0.17252465
0.22776808 0.042374939 0.17252465
0.22738817 0.044368334 0.17252465
0.22699083 0.046358321 0.17252465
0.22657606 0.048344754 0.17252465
0.22614393 0.05032748 0.17252465
0.22569442 0.052306343 0.17252465
0.22522761 0.05428119 0.17252465
0.22474352 0.056251876 0.17252465
0.2242422 0.058218244 0.17252463
0.22372365 0.060180146 0.17252463
0.22318795 0.062137432 0.17252463
0.22263512 0.064089954 0.17252463
0.22206521 0.066037551 0.17252463
0.22147827 0.067980088 0.17252463
0.22087434 0.069917403 0.17252463
0.22025345 0.071849361 0.17252462
0.21961567 0.073775798 0.17252462
0.21896105 0.07569658 0.17252462
0.21828961 0.077611558 0.17252462
0.21760143 0.079520576 0.17252462
0.21689656 0.081423491 0.17252462
0.21617505 0.083320163 0.1725246
0.21543697 0.085210443 0.1725246
0.21468234 0.087094188 0.1725246
0.21391124 0.088971242 0.1725246
0.21312372 0.09084148 0.1725246
0.21231987 0.092704743 0.1725246
0.21149972 0.094560891 0.17252459
0.21066335 0.09640979 0.17252459
0.20981081 0.098251291 0.17252459
0.20894217 0.10008525 0.17252459
0.20805751 0.10191153 0.17252459
0.20715688 0.10372999 0.17252457
0.20624036 0.1055405 0.17252457
0.20530802 0.10734291 0.17252457
0.20435992 0.10913708 0.17252457
0.20339614 0.11092288 0.17252456
0.20241676 0.11270016 0.17252456
0.20142186 0.11446881 0.17252456
0.2004115 0.11622867 0.17252456
0.19938575 0.11797961 0.17252454
0.19834472 0.1197215 0.17252454
0.19728847 0.12145421 0.17252454
0.19621707 0.1231776 0.17252454
0.19513063 0.12489153 0.17252453
0.19402921 0.12659588 0.17252453
0.19291292 0.12829052 0.17252453
0.19178182 0.12997532 0.17252453
0.19063599 0.13165015 0.17252451
0.18947557 0.13331488 0.17252451
0.18830058 0.13496938 0.17252451
0.18711115 0.13661352 0.1725245
0.18590738 0.13824718 0.1725245
0.18468933 0.13987024 0.1725245
0.18345712 0.14148256 0.17252448
0.18221083 0.14308403 0.17252448
0.18095057 0.14467452 0.17252448
0.17967641 0.14625391 0.17252448
0.17838849 0.14782208 0.17252447
0.17708686 0.14937891 0.17252447
0.17255923 -0.14816597 0.1725058
0.1738504 -0.14664884 0.17250581
0.17512824 -0.14512047 0.17250581
0.17639263 -0.14358096 0.17250581
0.17764349 -0.14203043 0.17250581
0.17888072 -0.140469 0.17250583
0.18010424 -0.13889681 0.17250583
0.18131393 -0.13731395 0.17250583
0.18250971 -0.13572055 0.17250584
0.18369149 -0.13411675 0.17250584
0.18485917 -0.13250266 0.17250584
0.18601269 -0.1308784 0.17250586
0.18715191 -0.12924409 0.17250586
0.18827678 -0.12759988 0.17250586
0.18938722 -0.12594587 0.17250586
0.19048311 -0.1242822 0.17250587
0.1915644 -0.122609 0.17250587
0.19263099 -0.12092638 0.17250587
0.19368279 -0.11923449 0.17250587
0.19471975 -0.11753345 0.17250589
0.19574176 -0.1158234 0.17250589
0.19674875 -0.11410446 0.17250589
0.19774064 -0.11237676 0.17250589
0.19871737 -0.11064044 0.1725059
0.19967885 -0.10889564 0.1725059
0.200625 -0.10714248 0.1725059
0.20155577 -0.10538109 0.1725059
0.20247108 -0.10361163 0.17250592
0.20337085 -0.10183421 0.17250592
0.20425501 -0.10004898 0.17250592
0.20512351 -0.098256074 0.17250592
0.20597628 -0.096455634 0.17250593
0.20681323 -0.094647788 0.17250593
0.20763433 -0.092832685 0.17250593
0.20843948 -0.091010459 0.17250593
0.20922865 -0.089181244 0.17250593
0.21000177 -0.087345198 0.17250594
0.21075878 -0.085502438 0.17250594
0.2114996 -0.08365313 0.17250594
0.21222422 -0.081797391 0.17250594
0.21293254 -0.079935387 0.17250594
0.21362452 -0.078067243 0.17250594
0.21430013 -0.076193117 0.17250596
0.21495928 -0.074313141 0.17250596
0.21560195 -0.072427467 0.17250596
0.21622807 -0.070536233 0.17250596
0.2168376 -0.068639584 0.17250596
0.2174305 -0.066737674 0.17250596
0.21800672 -0.064830638 0.17250597
0.21856621 -0.062918633 0.17250597
0.21910894 -0.0610018 0.17250597
0.21963485 -0.059080288 0.17250597
0.22014391 -0.057154242 0.17250597
0.22063608 -0.055223808 0.17250597
0.22111133 -0.053289142 0.17250597
0.2215696 -0.051350385 0.17250597
0.22201088 -0.049407687 0.17250599
0.22243513 -0.047461201 0.17250599
0.22284231 -0.045511071 0.17250599
0.2232324 -0.04355745 0.17250599
0.22360535 -0.041600488 0.17250599
0.22396116 -0.039640334 0.17250599
0.22429977 -0.037677139 0.17250599
0.22462119 -0.035711054 0.17250599
0.22492537 -0.033742227 0.17250599
0.22521229 -0.031770814 0.17250599
0.22548193 -0.029796962 0.17250599
0.22573428 -0.027820824 0.17250599
0.2259693 -0.025842551 0.172506
0.22618699 -0.023862295 0.172506
0.22638732 -0.021880209 0.172506
0.22657028 -0.019896444 0.172506
0.22673586 -0.017911153 0.172506
0.22688405 -0.015924487 0.172506
0.22701484 -0.013936601 0.172506
0.22712819 -0.011947644 0.172506
0.22722413 -0.0099577708 0.172506
0.22730264 -0.0079671331 0.172506
0.22736371 -0.0059758849 0.172506
0.22740732 -0.003984178 0.172506
0.2274335 -0.0019921656 0.172506
0.22744222 0 0.172506
0.2274335 0.0019921656 0.172506
0.22740732 0.003984178 0.172506
0.22736371 0.0059758849 0.172506
0.22730264 0.0079671331 0.172506
0.22722413 0.0099577708 0.172506
0.22712819 0.011947644 0.172506
0.22701484 0.013936601 0.172506
0.22688405 0.015924487 0.172506
0.22673586 0.017911153 0.172506
0.22657028 0.019896444 0.172506
0.22638732 0.021880209 0.172506
0.22618699 0.023862295 0.172506
0.2259693 0.025842551 0.172506
0.22573428 0.027820824 0.172506
0.22548193 0.029796962 0.17250599
0.22521229 0.031770814 0.17250599
0.22492537 0.03374223 0.17250599
0.22462119 0.035711054 0.17250599
0.22429977 0.037677139 0.17250599
0.22396116 0.039640337 0.17250599
0.22360535 0.041600488 0.17250599
0.2232324 0.04355745 0.17250599
0.22284232 0.045511071 0.17250599
0.22243513 0.047461201 0.17250599
0.22201088 0.049407687 0.17250599
0.2215696 0.051350385 0.17250599
0.22111133 0.053289142 0.17250597
0.22063608 0.055223811 0.17250597
0.22014391 0.057154242 0.17250597
0.21963485 0.059080288 0.17250597
0.21910894 0.0610018 0.17250597
0.21856621 0.062918633 0.17250597
0.21800673 0.064830638 0.17250597
0.2174305 0.066737674 0.17250597
0.21683761 0.068639584 0.17250596
0.21622807 0.070536233 0.17250596
0.21560195 0.072427467 0.17250596
0.21495928 0.074313141 0.17250596
0.21430013 0.076193117 0.17250596
0.21362452 0.078067251 0.17250596
0.21293254 0.079935387 0.17250594
0.21222422 0.081797399 0.17250594
0.2114996 0.08365313 0.17250594
0.21075878 0.085502446 0.17250594
0.21000177 0.087345198 0.17250594
