# .PCD v0.7 - Point Cloud Data file format
VERSION 0.7
FIELDS x y z
SIZE 4 4 4
TYPE F F F
COUNT 1 1 1
WIDTH 97
HEIGHT 1
VIEWPOINT 0 0 0 1 0 0 0
POINTS 97
DATA ascii
2.4246643 -0.14885184 0.035982396
2.4296684 -0.12780806 0.036038667
2.4153275 -0.10584825 0.035810824
2.415735 -0.084673382 0.035804495
2.4161272 -0.063503973 0.035800692
2.4165039 -0.042337168 0.035799403
2.4269021 -0.021258041 0.035949312
2.4583197 0 0.036413297
2.4147389 -0.16948517 0.057181988
2.4066582 -0.14774644 0.0569578
2.4071033 -0.12662107 0.0569399
2.4074643 -0.10550366 0.056924395
2.4078257 -0.084396161 0.056913279
2.4081869 -0.063295275 0.056906529
2.4085472 -0.042197768 0.056904126
2.4088488 -0.021099906 0.0569047
2.4172881 0 0.057101872
2.406775 -0.16892619 0.078258127
2.4040031 -0.14758344 0.078122966
2.4093935 -0.12674154 0.078259066
2.409754 -0.105604 0.078237727
2.4101155 -0.084476411 0.078222439
2.4104767 -0.063355453 0.078213148
2.4108391 -0.042237919 0.078209899
2.4061673 -0.021076418 0.078049362
2.4093587 0 0.078149885
2.4233017 -0.17008618 0.1002185
2.4134011 -0.14816038 0.099751547
2.4116929 -0.12686248 0.09963119
2.4120517 -0.10570469 0.099603951
2.4124107 -0.08455687 0.099584371
2.4127722 -0.063415796 0.099572539
2.4131339 -0.042278126 0.099568367
2.4155073 -0.021158231 0.099654824
2.4253571 0 0.10005735
2.4327149 -0.14934608 0.12205929
2.4348686 -0.021327823 0.12194245
2.4390607 -0.14973564 0.14396225
2.441226 -0.021383509 0.14382483
2.4448535 -0.15009128 0.16596247
2.5677772 -0.090002581 0.17408614
2.4470208 -0.021434266 0.16580382
2.4506826 -0.15044914 0.18809405
2.5031974 -0.13167591 0.19202876
2.5361845 -0.088895231 0.19441
2.4528494 -0.021485321 0.18791379
2.4565463 -0.15080911 0.21036139
2.4923468 -0.13110514 0.21332057
2.5301051 -0.088682145 0.21638612
2.4587128 -0.02153668 0.21015933
2.4624486 -0.15117145 0.23276947
2.4815733 -0.1305384 0.23446022
2.4979813 -0.087556176 0.23582932
2.4646144 -0.021588374 0.23254535
2.4683912 -0.15153627 0.25532326
2.4708762 -0.12997571 0.25545275
2.4613616 -0.086272635 0.2542738
2.4826374 -0.065252088 0.25640282
2.4705541 -0.021640403 0.25507659
2.4743693 -0.15190327 0.27802706
2.474714 -0.1301776 0.27792701
2.4881957 -0.1090416 0.2793231
2.4418774 -0.085589692 0.27402875
2.4592636 -0.064637743 0.27590573
2.4765315 -0.021692762 0.27775776
2.4803901 -0.15227289 0.30088651
2.4807341 -0.13049427 0.30077806
2.4655609 -0.10804965 0.29881215
2.429635 -0.085160591 0.29435647
2.4460161 -0.064289555 0.29626146
2.4825516 -0.021745492 0.30059436
2.4864535 -0.15264513 0.32390669
2.4867976 -0.13081323 0.32378983
2.4548743 -0.10758133 0.31949836
2.4225898 -0.084913649 0.31518769
2.4382975 -0.064086683 0.31714609
2.4886143 -0.021798598 0.32359141
2.4925585 -0.15301992 0.34709254
2.4929018 -0.13113432 0.3469671
2.4502962 -0.1073807 0.34089318
2.4198968 -0.084819257 0.33654764
2.4351304 -0.064003438 0.3385753
2.5025263 -0.043844279 0.34787914
2.4947186 -0.021852069 0.3467539
2.4987109 -0.15339762 0.37045017
2.4990525 -0.13145787 0.37031588
2.4522607 -0.1074668 0.36322874
2.4223671 -0.08490584 0.35867697
2.4372249 -0.06405849 0.36078
2.5004914 -0.043808628 0.3700743
2.5008695 -0.021905946 0.37008765
2.4666803 -0.10809872 0.38761449
2.432575 -0.085263632 0.38212311
2.4482205 -0.064347491 0.38447753
2.456847 -0.086114384 0.40815079
2.4736412 -0.065015636 0.41083041
2.4862754 -0.08714588 0.43558648
