# .PCD v0.7 - Point Cloud Data file format
VERSION 0.7
FIELDS x y z
SIZE 4 4 4
TYPE F F F
COUNT 1 1 1
WIDTH 1504
HEIGHT 1
VIEWPOINT 0 0 0 1 0 0 0
POINTS 1504
DATA ascii
2.6550694 0.89192116 0.80241042
2.6554451 0.91800863 0.8049233
2.6558223 0.94426161 0.80751383
2.6562021 0.9706862 0.81018347
2.6565828 0.99728763 0.81293291
2.6505256 1.0215898 0.81378639
2.5879376 1.0235909 0.79729235
2.5874159 1.0496852 0.79993361
2.5877991 1.0763329 0.80293602
2.658536 1.1331697 0.82793206
2.6589365 1.1609653 0.83119184
2.6593368 1.1889815 0.83454067
2.6597426 1.2172275 0.83798176
2.6601522 1.2457099 0.84151644
2.6605666 1.2744361 0.84514642
2.6069033 1.2769234 0.83162105
2.5909758 1.2973834 0.83013344
2.5913892 1.3261057 0.83395559
2.5505424 -1.5091951 0.8773424
2.550971 -1.4794359 0.87299865
2.5521114 -1.4503747 0.86900789
2.6040156 -1.4498453 0.88232338
2.6216028 -1.4297013 0.88400531
2.622025 -1.4002753 0.879978
2.6224444 -1.3711145 0.87605447
2.6228588 -1.3422098 0.87223196
2.6232698 -1.313554 0.86850905
2.5542519 -1.2511336 0.84199804
2.5546463 -1.2236993 0.83856249
2.5550346 -1.1964848 0.83521771
2.6117389 -1.1952586 0.85029876
2.6252794 -1.1737546 0.85132718
2.6256726 -1.1464413 0.84816569
2.6260605 -1.1193274 0.84509146
2.6264486 -1.0924083 0.84210473
2.6268327 -1.0656762 0.83920276
2.5576921 -1.011628 0.81425202
2.5580611 -0.9859513 0.811589
2.5584271 -0.96043968 0.80900496
2.5722141 -0.93999356 0.81072992
2.6287155 -0.9346239 0.82592636
2.6290851 -0.90889573 0.82350957
2.6294527 -0.88331574 0.82116967
2.6298165 -0.85787821 0.81890517
2.6301813 -0.83257955 0.81671643
2.6305435 -0.80741358 0.81460148
2.630903 -0.78237557 0.81255955
2.5616317 -0.73741663 0.78913969
2.5619781 -0.71327662 0.78729153
2.562324 -0.68924779 0.78551239
2.6323254 -0.68341005 0.80510616
2.6326754 -0.65894192 0.80341709
2.6330268 -0.63457513 0.80179727
2.6333745 -0.61030388 0.80024451
2.6337214 -0.58612478 0.7987591
2.6340673 -0.56203353 0.79734039
2.6344125 -0.53802592 0.79598778
2.5650349 -0.50049359 0.77367097
2.5653687 -0.47727206 0.77248108
2.5657017 -0.45412016 0.77135402
2.5673072 -0.43124786 0.77067149
2.6361215 -0.41909972 0.7901963
2.6364596 -0.39550906 0.78922886
2.6367991 -0.37197462 0.78832495
2.6371357 -0.34849191 0.78748268
2.6374719 -0.3250576 0.78670269
2.6378098 -0.30166811 0.78598511
2.6381447 -0.27831924 0.78532845
2.56866 -0.24825957 0.76396739
2.5689855 -0.22559744 0.76344717
2.5693097 -0.20296435 0.76298594
2.5696347 -0.18035695 0.76258409
2.6398132 -0.16205999 0.78295946
2.640147 -0.13887988 0.78266764
2.6404786 -0.11571518 0.78243542
2.6408141 -0.092562579 0.78226459
2.6411457 -0.069418222 0.78215271
2.6414776 -0.046278711 0.78210098
2.6418099 -0.023140488 0.78210926
2.6421418 0 0.78217757
2.5725484 0.022533804 0.76160437
2.5728722 0.045076739 0.76178789
2.5731981 0.067632325 0.7620306
2.6434746 0.092655838 0.78305268
2.6438086 0.1158611 0.78342217
2.6441405 0.13908996 0.7838515
2.6444752 0.1623462 0.78434217
2.6448088 0.18563326 0.78489327
2.6451447 0.208955 0.78550601
2.6454792 0.2323148 0.78617948
2.6458185 0.25571689 0.78691578
2.5761316 0.27177697 0.76686823
2.5764601 0.29465199 0.76770484
2.5767891 0.3175787 0.76860231
2.6471694 0.34981784 0.79047889
2.6475093 0.37348554 0.79152697
2.6478508 0.39721793 0.7926389
2.6481907 0.42101854 0.79381418
2.6485348 0.44489217 0.79505491
2.6488779 0.46884206 0.79636014
2.6492238 0.49287286 0.79773152
2.6265485 0.51249623 0.79222488
2.5797963 0.52687162 0.77948546
2.5801358 0.55052608 0.78101516
2.5804768 0.57427543 0.78261107
2.6509702 0.61438185 0.80559164
2.651324 0.63898486 0.80736905
2.6516798 0.66369861 0.80921668
2.6520357 0.68852729 0.81113464
2.652395 0.7134763 0.81312478
2.652755 0.73854971 0.8151871
2.6531169 0.76375252 0.81732279
2.5844905 0.76857346 0.79822493
2.5836203 0.79301113 0.80007088
2.5839798 0.81795454 0.80237007
2.6545858 0.86595821 0.82661808
2.6549578 0.89188367 0.82913482
2.6553323 0.91796958 0.83173096
2.6557097 0.94422162 0.83440787
2.6560898 0.97064519 0.83716649
2.656471 0.99724567 0.84000766
2.6504116 1.0215459 0.8408888
2.5878284 1.0235478 0.8238461
2.5873075 1.0496413 0.82657558
2.5876896 1.0762874 0.82967764
2.6584237 1.1331217 0.85550624
2.6588228 1.1609157 0.85887414
2.6592255 1.1889318 0.86233526
2.659632 1.2171769 0.86589122
2.6600401 1.2456573 0.86954302
2.660454 1.2743824 0.87329388
2.6067924 1.2768691 0.85931778
2.5908678 1.2973294 0.85778141
2.5912776 1.3260486 0.86172962
2.5504365 -1.5091325 0.90576661
2.5508635 -1.4793736 0.9012816
2.5520031 -1.4503131 0.8971613
2.6039071 -1.449785 0.91090894
2.6214919 -1.4296408 0.91264474
2.6219161 -1.4002171 0.90848762
2.6223333 -1.3710566 0.90443629
2.6227484 -1.3421532 0.90049011
2.6231608 -1.3134996 0.8966471
2.5541418 -1.2510796 0.86927581
2.5545375 -1.2236472 0.86572945
2.554929 -1.1964353 0.86227739
2.61163 -1.1952089 0.87784672
2.6251681 -1.1737049 0.87890786
2.6255608 -1.1463926 0.87564373
2.6259501 -1.1192803 0.87247038
2.6263378 -1.0923622 0.86938673
2.6267211 -1.0656309 0.86639059
2.5575836 -1.0115851 0.84063148
2.5579524 -0.9859094 0.83788216
2.5583191 -0.96039921 0.83521467
2.5721073 -0.93995452 0.83699608
2.6286044 -0.9345845 0.85268426
2.6289754 -0.90885776 0.85018951
2.6293406 -0.88327807 0.84777308
2.6297064 -0.85784227 0.84543586
2.6300704 -0.83254439 0.84317595
2.6304307 -0.80737901 0.84099197
2.6307917 -0.78234243 0.83888429
2.5615227 -0.73738533 0.81470555
2.5618694 -0.71324635 0.81279755
2.5622146 -0.68921834 0.81096053
2.6322129 -0.68338084 0.83118904
2.6325648 -0.65891427 0.82944584
2.6329141 -0.63454795 0.82777292
2.6332631 -0.61027807 0.82617027
2.6336098 -0.58609998 0.8246367
2.6339557 -0.56200969 0.82317203
2.6343021 -0.53800339 0.82177603
2.5649273 -0.50047261 0.79873621
2.5652614 -0.4772521 0.79750782
2.5655923 -0.45410079 0.79634351
2.5671999 -0.43122983 0.79563957
2.6360109 -0.41908213 0.81579679
2.6363482 -0.39549237 0.81479788
2.6366858 -0.37195861 0.81386399
2.6370258 -0.34847742 0.81299561
2.6373625 -0.32504413 0.81219041
2.6376979 -0.30165532 0.81144887
2.6380329 -0.27830744 0.81077087
2.5685508 -0.24824902 0.78871775
2.5688765 -0.22558787 0.78818077
2.5692019 -0.20295584 0.78770494
2.5695252 -0.18034926 0.7872895
2.639703 -0.16205323 0.80832571
2.6400349 -0.13887398 0.80802381
2.6403699 -0.11571041 0.80778521
2.6407015 -0.092558637 0.80760765
2.6410334 -0.069415264 0.80749214
2.641367 -0.046276771 0.80743927
2.6416993 -0.023139521 0.80744791
2.642031 0 0.8075183
2.5724406 0.022532862 0.78627867
2.5727642 0.04507485 0.78646809
2.5730906 0.067629501 0.78671879
2.6433623 0.092651896 0.80842137
2.6436958 0.11585617 0.80880272
2.6440303 0.13908416 0.80924672
2.6443629 0.1623393 0.80975264
2.6446984 0.18562551 0.81032223
2.6450324 0.20894612 0.81095421
2.6453695 0.23230517 0.81165028
2.645705 0.25570592 0.81240922
2.5760231 0.27176553 0.79171282
2.5763514 0.29463953 0.79257649
2.5766807 0.31756532 0.79350311
2.6470578 0.34980312 0.81608844
2.6473982 0.37346983 0.81717056
2.6477373 0.39720088 0.81831777
2.6480799 0.42100093 0.81953198
2.6484237 0.44487351 0.82081282
2.648767 0.46882239 0.82216042
2.6491115 0.49285194 0.82357579
2.6264338 0.51247382 0.81788975
2.5796869 0.52684927 0.80473864
2.5800269 0.55050284 0.80631804
2.580368 0.57425117 0.80796564
2.6508572 0.61435562 0.83169031
2.6512113 0.63895768 0.83352542
2.6515653 0.66366994 0.83543229
2.6519234 0.68849808 0.83741313
2.652281 0.71344566 0.83946729
2.6526413 0.738518 0.84159648
2.6530037 0.76371992 0.8438015
2.5843801 0.76854062 0.82408494
2.5835111 0.79297757 0.82599097
2.5838687 0.81791937 0.82836413
2.6544738 0.86592168 0.85339838
2.654846 0.89184612 0.85599673
2.655221 0.91793108 0.85867715
2.6555989 0.94418222 0.86144096
2.6559775 0.97060412 0.86428839
2.6563604 0.99720412 0.86722225
2.6502984 1.0215021 0.86813098
2.5877178 1.023504 0.85053611
2.5871983 1.0495969 0.85335439
2.5875816 1.0762426 0.85655749
2.6583116 1.133074 0.88322252
2.658711 1.160867 0.88669962
2.6591125 1.1888812 0.89027244
2.6595192 1.2171253 0.89394367
2.65993 1.2456057 0.89771473
2.6603429 1.2743291 0.90158671
2.6066809 1.2768145 0.88715696
2.5907564 1.2972735 0.88557059
2.5911705 1.3259938 0.8896482
2.5503275 -1.509068 0.93434101
2.550755 -1.4793108 0.92971474
2.5518963 -1.4502524 0.92546505
2.6037982 -1.4497242 0.93964636
2.621381 -1.4295803 0.94143653
2.6218028 -1.4001567 0.93714744
2.6222229 -1.3709987 0.93296921
2.622638 -1.3420968 0.92889863
2.6230483 -1.3134432 0.92493361
2.5540347 -1.2510271 0.89669973
2.5544288 -1.2235953 0.8930409
2.5548198 -1.1963843 0.88947982
2.6115212 -1.1951591 0.9055413
2.6250567 -1.173655 0.90663522
2.6254504 -1.1463444 0.90326846
2.6258383 -1.1192327 0.89999449
2.626225 -1.0923153 0.89681333
2.6266098 -1.0655859 0.89372307
2.5574765 -1.0115428 0.86715186
2.5578451 -0.98586804 0.86431563
2.5582099 -0.9603582 0.86156338
2.5720005 -0.93991542 0.86340189
2.6284928 -0.93454474 0.87958425
2.6288614 -0.90881836 0.87701005
2.62923 -0.88324094 0.87451851
2.629596 -0.85780621 0.87210757
2.6299593 -0.83250928 0.86977625
2.6303215 -0.80734545 0.86752397
2.6306779 -0.78230864 0.86534828
2.561414 -0.73735398 0.84040743
2.5617602 -0.71321595 0.83843911
2.5621054 -0.68918902 0.83654416
2.6320999 -0.68335152 0.85741061
2.6324518 -0.65888596 0.8556124
2.6328025 -0.63452101 0.85388708
2.6331518 -0.61025226 0.85223401
2.6334982 -0.58607513 0.85065204
2.6338437 -0.56198579 0.84914094
2.6341898 -0.53798044 0.84770083
2.5648177 -0.50045121 0.82393402
2.5651515 -0.47723165 0.82266682
2.565484 -0.45408165 0.82146639
2.5670905 -0.43121144 0.82073987
2.6358991 -0.41906434 0.84153312
2.6362386 -0.39547592 0.84050339
2.6365757 -0.37194309 0.83953989
2.636914 -0.34846264 0.83864361
2.6372502 -0.32503027 0.8378129
2.6375856 -0.30164251 0.83704799
2.6379206 -0.27829558 0.83634853
2.5684414 -0.24823843 0.81359965
2.5687668 -0.22557825 0.81304568
2.569092 -0.20294717 0.81255478
2.5694175 -0.18034171 0.81212693
2.6395895 -0.16204627 0.83382589
2.6399252 -0.13886821 0.8335157
2.6402571 -0.11570547 0.83326846
2.6405904 -0.092554741 0.83308589
2.6409225 -0.069412351 0.83296686
2.6412544 -0.046274796 0.83291173
2.6415861 -0.023138529 0.83292049
2.6419179 0 0.83299321
2.5723305 0.022531897 0.8110835
2.5726542 0.045072924 0.81127894
2.5729787 0.067626558 0.81153685
2.6432509 0.092647992 0.83392531
2.6435847 0.1158513 0.83431876
2.6439173 0.13907821 0.83477616
2.6442523 0.1623325 0.83529878
2.6445856 0.1856176 0.83588564
2.644922 0.20893741 0.83653837
2.6452565 0.23229526 0.8372556
2.6455927 0.25569507 0.83803868
2.5759115 0.27175376 0.81668866
2.5762405 0.29462686 0.81757981
2.5765715 0.31755188 0.81853622
2.646946 0.34978834 0.84183413
2.6472864 0.37345406 0.84295046
2.6476257 0.39718416 0.84413391
2.6479683 0.42098317 0.84538639
2.6483111 0.44485459 0.84670734
2.6486545 0.46880251 0.8480975
2.6490006 0.49283135 0.84955806
2.6263189 0.51245141 0.84369099
2.5795774 0.52682698 0.83012617
2.5799179 0.55047959 0.83175546
2.5802577 0.57422662 0.83345461
2.6507456 0.61432976 0.8579284
2.6510997 0.6389308 0.85982138
2.6514542 0.66364211 0.86178857
2.6518106 0.68846881 0.86383134
2.6521688 0.71341544 0.86595047
2.6525295 0.73848689 0.86814696
2.6528919 0.76368773 0.87042159
2.584271 0.76850814 0.85008293
2.5834012 0.79294384 0.85204881
2.5837605 0.8178851 0.85449743
2.6543615 0.86588502 0.88032109
2.6547337 0.89180839 0.88300133
2.6551092 0.91789252 0.88576657
2.6554835 0.94414109 0.88861626
2.6558645 0.97056288 0.89155447
2.6562462 0.99716127 0.89458042
2.6501837 1.021458 0.89551759
2.5876083 1.0234606 0.87736851
2.58709 1.049553 0.88027614
2.5874722 1.076197 0.88357985
2.6581979 1.1330255 0.91108561
2.6585975 1.1608174 0.91467255
2.6590014 1.1888316 0.91835886
2.6594079 1.2170743 0.9221459
2.6598155 1.2455522 0.92603487
2.660229 1.2742746 0.93002921
2.6065683 1.2767594 0.91514385
2.5906465 1.2972186 0.91350812
2.5910594 1.3259369 0.917714
2.5502179 -1.509003 0.963072
2.5506475 -1.4792483 0.95830429
2.5517874 -1.4501905 0.9539234
2.603688 -1.4496629 0.9685412
2.6212683 -1.4295189 0.97038573
2.621691 -1.400097 0.96596509
2.6221113 -1.3709404 0.96165848
2.6225257 -1.3420393 0.95746249
2.6229372 -1.3133875 0.95337594
2.5539265 -1.2509741 0.92427385
2.5543194 -1.2235428 0.92050207
2.5547099 -1.1963328 0.91683131
2.6114111 -1.1951087 0.93338746
2.6249452 -1.1736052 0.93451476
2.6253366 -1.1462947 0.93104368
2.6257274 -1.1191853 0.92767012
2.6261141 -1.0922692 0.92439103
2.6264966 -1.0655398 0.92120498
2.5573654 -1.0114989 0.89381641
2.5577362 -0.98582602 0.8908937
2.5581019 -0.96031761 0.88805717
2.5718923 -0.93987596 0.88995242
2.6283813 -0.93450505 0.90663201
2.6287501 -0.90877986 0.90397877
2.6291163 -0.88320273 0.9014098
2.6294827 -0.85776925 0.89892483
2.6298463 -0.83247346 0.89652193
2.630208 -0.80731064 0.89420021
2.6305683 -0.78227597 0.89195889
2.561305 -0.73732263 0.8662504
2.5616527 -0.71318603 0.86422205
2.5619972 -0.68915987 0.86226857
2.6319885 -0.68332261 0.88377661
2.6323402 -0.65885806 0.88192302
2.6326904 -0.63449401 0.88014454
2.6330395 -0.61022621 0.87844056
2.6333878 -0.58605057 0.87681049
2.6337326 -0.56196207 0.87525278
2.634079 -0.53795779 0.87376839
2.5647092 -0.50043005 0.84927064
2.565043 -0.47721148 0.84796447
2.5653758 -0.45406249 0.84672719
2.5669837 -0.4311935 0.84597886
2.6357872 -0.41904658 0.86741084
2.6361246 -0.39545882 0.86634868
2.6364632 -0.37192723 0.86535609
2.6367998 -0.34844753 0.86443162
2.6371377 -0.32501638 0.86357588
2.6374731 -0.3016296 0.86278743
2.6378081 -0.27828372 0.86206657
2.5683315 -0.24822782 0.83861804
2.5686567 -0.22556858 0.83804697
2.5689821 -0.20293848 0.83754098
2.5693071 -0.18033396 0.83709985
2.6394763 -0.16203931 0.85946614
2.6398122 -0.13886227 0.85914648
2.6401453 -0.11570057 0.85889208
2.6404772 -0.092550769 0.85870343
2.6408086 -0.069409356 0.85858053
2.6411424 -0.046272837 0.85852438
2.6414742 -0.023137549 0.85853344
2.6418064 0 0.85860842
2.5722222 0.022530947 0.83602506
2.5725458 0.045071021 0.83622646
2.5728698 0.067623697 0.8364923
2.6431375 0.092644021 0.8595686
2.6434712 0.11584633 0.85997415
2.6438057 0.13907234 0.86044621
2.6441388 0.16232553 0.86098433
2.6444721 0.18560964 0.86158925
2.6448088 0.20892847 0.86226207
2.6451435 0.23228532 0.86300147
2.6454792 0.25568411 0.86380857
2.5758018 0.27174219 0.84180224
2.5761306 0.29461429 0.84272069
2.5764599 0.31753811 0.84370589
2.6468318 0.34977323 0.86772043
2.647172 0.37343791 0.86887097
2.6475139 0.39716738 0.87009174
2.6478548 0.42096514 0.87138218
2.6481991 0.44483578 0.87274426
2.6485426 0.46878272 0.87417722
2.6488874 0.49281028 0.87568218
2.6262035 0.51242894 0.86963373
2.5794683 0.52680463 0.85565311
2.5798082 0.55045623 0.85733241
2.5801482 0.5742023 0.85908389
2.6506336 0.61430377 0.88431031
2.6509867 0.6389035 0.88626117
2.6513407 0.66361374 0.8882888
2.6516974 0.68843949 0.89039451
2.6520565 0.71338522 0.89257902
2.6524165 0.73845541 0.89484286
2.6527793 0.7636553 0.89718759
2.5841596 0.768475 0.87622291
2.583293 0.79291064 0.87825036
2.5836487 0.8178497 0.88077301
2.6542466 0.86584753 0.90739065
2.6546195 0.89177001 0.91015369
2.6549935 0.91785246 0.91300339
2.6553717 0.94410139 0.91594207
2.655751 0.97052139 0.91897005
2.6561339 0.99711907 0.92208946
2.6500692 1.0214139 0.92305458
2.587497 1.0234166 0.9043476
2.5869775 1.0495074 0.90734422
2.5873604 1.0761505 0.91074979
2.6580853 1.1329776 0.93910217
2.6584857 1.1607685 0.94279963
2.6588855 1.1887797 0.94659793
2.6592934 1.2170219 0.95050192
2.6597033 1.2454996 0.95451117
2.6601152 1.27422 0.95862788
2.6064556 1.2767042 0.94328433
2.5905364 1.2971635 0.94159907
2.5909503 1.325881 0.94593453
2.5501084 -1.5089383 0.99196583
2.5505352 -1.4791832 0.98705393
2.5516789 -1.4501288 0.98254311
2.6035779 -1.4496017 0.99759972
2.6211557 -1.4294575 0.99949896
2.6215799 -1.4000375 0.99494618
2.6219971 -1.3708806 0.99050921
2.6224132 -1.3419818 0.98618799
2.6228242 -1.313331 0.98197871
2.5538154 -1.2509197 0.95200312
2.5542104 -1.2234906 0.94811893
2.5546 -1.1962813 0.94433773
2.6113012 -1.1950583 0.96139151
2.6248333 -1.1735551 0.96255207
2.6252263 -1.1462466 0.95897746
2.6256127 -1.1191365 0.95550102
2.6260006 -1.092222 0.95212412
2.6263847 -1.0654945 0.94884306
2.5572565 -1.0114558 0.92063272
2.5576243 -0.98578292 0.91762131
2.557992 -0.96027637 0.91470033
2.5717838 -0.93983626 0.91665316
2.628267 -0.93446445 0.93383199
2.6286371 -0.90874088 0.93109959
2.629005 -0.8831653 0.9284541
2.62937 -0.85773247 0.92589414
2.6297328 -0.83243752 0.92341888
2.6300941 -0.80727565 0.92102736
2.6304538 -0.78224194 0.91871864
2.5611951 -0.73729098 0.89223939
2.5615427 -0.71315539 0.89015013
2.561887 -0.68913025 0.88813806
2.6318753 -0.68329322 0.91029131
2.6322281 -0.65882999 0.90838248
2.6325784 -0.63446701 0.90655071
2.6329269 -0.61020017 0.90479541
2.6332726 -0.58602494 0.90311563
2.6336198 -0.56193805 0.90151197
2.6339638 -0.53793424 0.89998221
2.564599 -0.50040853 0.8747502
2.5649323 -0.47719088 0.87340462
2.5652642 -0.45404273 0.87212998
2.5668731 -0.4311749 0.87135947
2.6356726 -0.41902834 0.89343411
2.6360121 -0.39544192 0.89234078
2.6363485 -0.37191105 0.89131773
2.6366866 -0.3484326 0.89036602
2.6370227 -0.32500222 0.88948405
2.6373599 -0.30161667 0.88867253
2.6376944 -0.27827173 0.88792992
2.5682209 -0.24821714 0.86377794
2.5685458 -0.22555885 0.86318964
2.5688713 -0.20292974 0.86266851
2.5691981 -0.18032631 0.86221474
2.6393664 -0.16203256 0.88525277
2.6396978 -0.13885625 0.88492197
2.6400313 -0.11569557 0.88466012
2.640363 -0.092546768 0.88446569
2.6406965 -0.069406413 0.88433981
2.6410284 -0.046270836 0.88428128
2.6413603 -0.023136552 0.8842907
2.6416924 0 0.88436794
2.5721111 0.022529975 0.86110699
2.5724347 0.045069076 0.86131448
2.5727592 0.067620791 0.86158836
2.6430254 0.092640094 0.88535756
2.6433573 0.11584133 0.88577461
2.643692 0.13906635 0.88626099
2.6440251 0.16231856 0.88681525
2.6443608 0.1856018 0.88743907
2.644695 0.20891948 0.88813138
2.64503 0.23227537 0.88889301
2.645366 0.25567317 0.88972437
2.5756912 0.27173051 0.86705768
2.5760202 0.29460168 0.86800385
2.57635 0.31752455 0.86901879
2.6467171 0.34975809 0.89375311
2.6470573 0.37342176 0.89493823
2.6473994 0.39715019 0.89619565
2.6477406 0.42094699 0.89752495
2.648083 0.44481629 0.89892727
2.6484287 0.46876252 0.90040386
2.6487739 0.49278912 0.90195417
2.6260879 0.51240635 0.89572322
2.5793579 0.5267821 0.88132429
2.5796964 0.55043232 0.88305348
2.5800383 0.57417786 0.88485819
2.6505187 0.61427718 0.91084081
2.6508744 0.63887644 0.91285104
2.6512291 0.66358578 0.91493976
2.6515834 0.68840986 0.91710782
2.6519413 0.71335423 0.91935748
2.652302 0.73842353 0.92168945
2.6526651 0.76362246 0.92410463
2.5840478 0.7684418 0.90251076
2.58318 0.79287595 0.90459865
2.5835381 0.81781471 0.90719783
2.6541338 0.86581075 0.93461442
2.654505 0.89173156 0.93745965
2.6548812 0.91781366 0.94039565
2.6552582 0.94406104 0.94342208
2.6556361 0.97047943 0.94654042
2.6560185 0.99707574 0.94975317
2.6499534 1.0213692 0.95074701
2.5873857 1.0233727 0.93147951
2.5868671 1.0494627 0.93456632
2.5872502 1.0761046 0.93807417
2.6579707 1.1329286 0.96727657
2.6583717 1.1607188 0.97108525
2.6587739 1.1887299 0.97499835
2.6591802 1.2169701 0.97901887
2.6595883 1.2454457 0.98314786
2.6600008 1.2741652 0.98738819
2.6063421 1.2766485 0.9715839
2.5904245 1.2971075 0.96984839
2.5908387 1.3258239 0.97431403
2.549999 -1.5088735 1.0210282
2.5504274 -1.4791207 1.0159732
2.5515699 -1.4500669 1.0113298
2.603467 -1.4495398 1.0268275
2.6192617 -1.4284246 1.0280828
2.6214647 -1.3999761 1.0240949
2.6218853 -1.3708222 1.0195293
2.6222982 -1.3419229 1.0150802
2.6227107 -1.3132741 1.0107483
2.5537066 -1.2508665 0.97989511
2.5540988 -1.2234372 0.97589606
2.5544903 -1.1962299 0.97200471
2.6111898 -1.1950074 0.98955846
2.6247172 -1.1735032 0.99075145
2.6251118 -1.1461966 0.98707277
2.6255019 -1.1190892 0.98349583
2.6258891 -1.0921756 0.98001969
2.6262708 -1.0654483 0.9766416
2.5571454 -1.0114118 0.94760472
2.5575142 -0.98574054 0.94450557
2.5578814 -0.96023476 0.9414987
2.5716751 -0.93979651 0.94350964
2.6281528 -0.93442386 0.96119076
2.6285222 -0.90870112 0.95837802
2.6288903 -0.8831268 0.9556551
2.6292567 -0.85769552 0.95302063
2.6296206 -0.83240205 0.95047331
2.629982 -0.80724126 0.94801176
2.6303411 -0.78220844 0.9456352
2.561085 -0.73725927 0.91837996
2.5614305 -0.7131241 0.91622877
2.5617762 -0.68910044 0.91415823
2.6317613 -0.68326354 0.93696046
2.6321137 -0.65880138 0.93499565
2.6324637 -0.63443941 0.93311006
2.632812 -0.61017358 0.93130332
2.6331599 -0.58599979 0.92957497
2.6335061 -0.56191379 0.92792404
2.6338501 -0.53791106 0.92634952
2.5644877 -0.50038683 0.90037805
2.5648208 -0.47717014 0.89899302
2.5651529 -0.454023 0.897681
2.5667622 -0.43115628 0.89688814
2.6355579 -0.41901013 0.91960925
2.6358969 -0.39542466 0.91848373
2.6362352 -0.37189505 0.91743129
2.6365736 -0.34841764 0.91645181
2.636909 -0.32498822 0.91554379
2.6372457 -0.30160362 0.91470838
2.6375804 -0.27825972 0.91394407
2.5681098 -0.24820638 0.8890844
2.5684354 -0.22554913 0.88847905
2.5687623 -0.20292112 0.88794327
2.5690873 -0.18031853 0.88747555
2.6392517 -0.16202553 0.91118824
2.6395836 -0.13885024 0.9108479
2.6399171 -0.11569057 0.91057849
2.6402504 -0.09254282 0.91037881
2.6405821 -0.069403403 0.91024864
2.6409137 -0.046268828 0.91018838
2.6412454 -0.023135545 0.91019791
2.6415777 0 0.91027755
2.5719991 0.022528993 0.88633496
2.5723233 0.045067124 0.88654876
2.5726471 0.067617841 0.88683045
2.642909 0.092636012 0.91129559
2.6432452 0.11583642 0.91172636
2.6435773 0.13906033 0.91222614
2.6439109 0.16231155 0.9127968
2.6442463 0.18559378 0.9134388
2.6445808 0.20891045 0.91415137
2.6449163 0.23226537 0.91493553
2.6452522 0.25566217 0.91579127
2.5755811 0.27171889 0.8924607
2.5759099 0.29458904 0.89343452
2.5762398 0.31751099 0.89447927
2.6466033 0.34974307 0.91993815
2.6469445 0.37340584 0.92115825
2.6472845 0.39713296 0.92245179
2.6476259 0.42092872 0.92382008
2.6479681 0.44479698 0.9252634
2.6483126 0.46874198 0.92678291
2.6486578 0.49276751 0.92837864
2.6259708 0.51238346 0.92196441
2.5792453 0.52675909 0.90714449
2.5795841 0.55040836 0.90892446
2.5799265 0.57415295 0.91078222
2.6504045 0.61425072 0.93752623
2.6507578 0.6388483 0.93959457
2.6511128 0.66355669 0.94174457
2.6514699 0.68838042 0.94397718
2.6518276 0.71332365 0.9462927
2.6521885 0.73839194 0.9486931
2.6525502 0.76358938 0.95117849
2.583936 0.76840848 0.92895204
2.5830684 0.79284173 0.93110114
2.5834274 0.81777972 0.93377686
2.6540201 0.86577368 0.96199661
2.6543903 0.89169306 0.96492493
2.6547644 0.91777325 0.96794611
2.6551418 0.94401968 0.97106147
2.6555223 0.97043777 0.97427201
2.6559055 0.99703336 0.9775793
2.6498368 1.0213243 0.9786008
2.5872722 1.0233277 0.9587689
2.5867546 1.0494169 0.96194649
2.5871379 1.0760579 0.96555722
2.6578581 1.1328807 0.99561626
2.6582553 1.160668 0.99953514
2.658658 1.188678 1.003563
2.6590648 1.2169174 1.0077015
2.6594739 1.2453921 1.0119518
2.6598847 1.2741096 1.0163158
2.6062286 1.276593 1.0000485
2.5903149 1.2970525 0.99826336
2.5907252 1.3257658 1.0028584
2.5498884 -1.508808 1.0502648
2.5503173 -1.4790568 1.0450653
2.550739 -1.4495947 1.039995
2.5511594 -1.4204165 1.0350538
2.5515726 -1.39151 1.0302367
2.5573845 -1.3657545 1.0277138
2.5692501 -1.3433025 1.0277141
2.5809195 -1.320748 1.027715
2.5923905 -1.2980919 1.0277156
2.5535944 -1.2508115 1.0079533
2.5539894 -1.2233847 1.0038409
2.5543802 -1.1961783 0.99983788
2.611078 -1.1949562 1.0178945
2.6246049 -1.173453 1.0191218
2.624999 -1.1461474 1.0153375
2.6253865 -1.11904 1.0116571
2.6257734 -1.0921274 1.0080814
2.6261585 -1.0654026 1.0046078
2.5570352 -1.0113683 0.97473925
2.5574038 -0.98569793 0.97155118
2.5577686 -0.9601925 0.96845746
2.5715652 -0.93975639 0.97052729
2.6280406 -0.93438399 0.98871464
2.6284096 -0.9086622 0.98582125
2.6287766 -0.88308859 0.98302001
2.6291404 -0.85765761 0.98030913
2.6295049 -0.83236545 0.97768903
2.6298671 -0.80720598 0.97515726
2.6302264 -0.78217435 0.97271276
2.5609732 -0.73722708 0.94467705
2.5613196 -0.71309322 0.94246459
2.5616653 -0.68907064 0.94033486
2.6316488 -0.68323433 0.96379048
2.6320014 -0.65877324 0.96176946
2.6323509 -0.63441217 0.95982969
2.632699 -0.61014736 0.95797116
2.6330442 -0.5859741 0.95619237
2.6333904 -0.56188905 0.95449418
2.6337359 -0.53788775 0.95287514
2.5643747 -0.50036478 0.92615926
2.5647092 -0.47714937 0.92473507
2.5650411 -0.45400321 0.92338544
2.5666528 -0.43113789 0.92257077
2.6354444 -0.41899207 0.9459421
2.6357834 -0.39540762 0.94478434
2.6361198 -0.3718788 0.94370121
2.6364574 -0.34840229 0.94269335
2.6367946 -0.32497412 0.94176
2.6371298 -0.30159035 0.94090009
2.6374681 -0.27824786 0.94011515
2.5680003 -0.24819581 0.91454357
2.5683255 -0.22553951 0.91392082
2.5686502 -0.20291227 0.91336888
2.5689754 -0.18031068 0.91288781
2.639137 -0.16201848 0.93727958
2.6394708 -0.13884431 0.9369303
2.6398022 -0.11568554 0.93665224
2.6401355 -0.092538796 0.93644696
2.6404672 -0.069400385 0.93631309
2.6407988 -0.046266817 0.93625104
2.6411326 -0.023134558 0.93626165
2.6414647 0 0.93634343
2.5718894 0.022528032 0.91171545
2.5722132 0.045065198 0.91193521
2.5725353 0.067614906 0.91222435
2.6427946 0.092631996 0.93739015
2.6431282 0.11583129 0.93783242
2.6434627 0.1390543 0.93834722
2.6437979 0.16230461 0.93893486
2.6441319 0.18558574 0.93959475
2.6444662 0.20890139 0.9403277
2.6448014 0.23225528 0.94113421
2.6451378 0.25565109 0.94201458
2.5754697 0.27170715 0.91801602
2.5757987 0.29457635 0.91901779
2.5761268 0.31749707 0.92009181
2.6464899 0.34972805 0.9462806
2.6468289 0.37338951 0.94753486
2.6471691 0.39711565 0.94886553
2.6475127 0.42091075 0.95027381
2.6478555 0.44477808 0.95175874
2.6481996 0.46872199 0.95332158
2.6485434 0.49274623 0.95496249
2.6258533 0.51236057 0.94836307
2.5791323 0.52673608 0.93311977
2.5794735 0.55038476 0.93495148
2.5798147 0.57412803 0.93686199
2.6502893 0.61422402 0.9643718
2.6506429 0.63882065 0.96649945
2.6509986 0.66352808 0.96871126
2.651356 0.6883508 0.97100782
2.6517136 0.71329302 0.97338969
2.6520729 0.73835981 0.97585827
2.6524353 0.76355624 0.97841507
2.5838225 0.7683748 0.95555162
2.5829554 0.79280698 0.95776236
2.5833149 0.81774402 0.96051484
2.653903 0.86573547 0.98954219
2.6542749 0.89165431 0.99255502
2.6546497 0.91773361 0.99566293
2.6550279 0.94397914 0.99886775
2.6554065 0.97039551 1.0021696
2.6557882 0.99698931 1.005571
2.6497202 1.0212793 1.006622
2.5871601 1.0232834 0.9862228
2.5866432 1.0493717 0.9894917
2.5870256 1.0760112 0.99320543
2.6577411 1.1328309 1.0241246
2.6571751 1.1601963 1.027783
2.6469123 1.1834265 1.0277835
2.636447 1.2065663 1.0277842
2.6257792 1.2296134 1.0277849
2.6149099 1.2525662 1.0277855
2.6038404 1.275423 1.0277864
2.5902007 1.2969954 1.0268475
2.5906143 1.3257092 1.0315754
2.549777 -1.5087422 1.0796821
2.5502033 -1.4789908 1.0743357
2.5506287 -1.449532 1.0691251
2.5510478 -1.4203542 1.064045
2.5514627 -1.39145 1.0590936
2.5518737 -1.3628116 1.0542687
2.5522821 -1.3344309 1.0495681
2.5526853 -1.3062996 1.0449885
2.5530851 -1.2784103 1.0405281
2.553483 -1.250757 1.0361854
2.5538776 -1.2233312 1.0319576
2.5542679 -1.1961257 1.0278423
2.5634592 -1.1731635 1.0273664
2.5736384 -1.150666 1.0273671
2.5836194 -1.1280799 1.0273675
2.5934033 -1.1054077 1.0273684
2.6029878 -1.0826502 1.027369
2.6123717 -1.0598096 1.0273694
2.5569229 -1.0113239 1.0020407
2.5572913 -0.98565459 0.99876338
2.5576599 -0.96015167 0.99558437
2.571455 -0.93971616 0.9977119
2.6279235 -0.93434238 1.016407
2.628294 -0.90862221 1.0134331
2.6286612 -0.88304985 1.0105535
2.6290286 -0.85762113 1.007768
2.6293919 -0.83232963 1.005074
2.6297519 -0.80717069 1.0024706
2.630111 -0.78213996 0.9999575
2.5608604 -0.7371946 0.97113645
2.5612085 -0.71306235 0.96886271
2.5615535 -0.68904054 0.96667296
2.6315341 -0.68320465 0.99078572
2.6318841 -0.65874386 0.98870701
2.6322351 -0.63438427 0.98671353
2.6325834 -0.61012053 0.98480296
2.6329298 -0.58594865 0.98297495
2.633276 -0.56186467 0.98122913
2.6336212 -0.53786433 0.97956461
2.5642645 -0.50034326 0.95210099
2.5645993 -0.47712895 0.9506371
2.5649307 -0.45398369 0.94924945
2.5665419 -0.43111929 0.94841182
2.6353304 -0.41897395 0.97243768
2.6356695 -0.39539051 0.97124755
2.6360071 -0.37186289 0.97013444
2.6363451 -0.34838745 0.96909863
2.6366801 -0.32496002 0.96813828
2.637017 -0.30157745 0.96725494
2.6373513 -0.27823552 0.96644652
2.5678885 -0.24818499 0.94015938
2.5682137 -0.22552969 0.93951923
2.5685382 -0.20290342 0.93895173
2.5688629 -0.18030278 0.93845713
2.6390216 -0.1620114 0.96353209
2.6393552 -0.13883823 0.96317291
2.6396863 -0.11568046 0.96288705
2.6400199 -0.092534743 0.96267611
2.6403513 -0.069397338 0.96253836
2.6406832 -0.04626479 0.9624747
2.641017 -0.023133544 0.96248555
2.6413488 0 0.96256953
2.5717766 0.022527045 0.93725181
2.5721006 0.045063224 0.93747777
2.5724249 0.067612 0.93777579
2.6426783 0.09262792 0.96364546
2.6430128 0.11582623 0.96410042
2.6433456 0.13904813 0.96462905
2.6436827 0.16229755 0.96523392
2.6440163 0.18557763 0.9659121
2.6443515 0.20889233 0.96666592
2.6446862 0.23224516 0.96749485
2.6450229 0.25564 0.9684
2.5753579 0.27169535 0.94372922
2.575685 0.29456335 0.94475842
2.5760152 0.31748334 0.94586331
2.6463733 0.34971264 0.97278488
2.6467144 0.37337336 0.97407508
2.6470551 0.39709854 0.97544318
2.6473973 0.42089239 0.97689039
2.6477401 0.44475871 0.97841692
2.6480844 0.4687016 0.98002362
2.6484284 0.49272487 0.98171061
2.625735 0.51233745 0.97492468
2.579021 0.52671325 0.95925623
2.5793605 0.55036068 0.96113878
2.5797012 0.57410282 0.96310264
2.6501737 0.61419719 0.99138319
2.6505275 0.63879281 0.99357057
2.6508834 0.66349924 0.99584436
2.6512375 0.68832004 0.99820411
2.6515975 0.71326172 1.0006535
2.6519578 0.73832768 1.0031916
2.6523199 0.76352304 1.0058199
2.583709 0.768341 0.98231566
2.5828443 0.79277295 0.98458934
2.5832014 0.81770813 0.987418
2.6537888 0.86569828 1.0172592
2.6541617 0.89161623 1.0203568
2.6545329 0.9176932 1.0235504
2.6549118 0.94393784 1.0268452
2.6480365 0.96770215 1.0274251
2.6394601 0.99085969 1.0274256
2.630682 1.0139415 1.0274265
2.5870459 1.0232382 1.0138457
2.5865302 1.0493259 1.0172067
2.5869129 1.0759643 1.0210245
2.5935564 1.1054728 1.027429
2.5880208 1.1300015 1.0291177
2.5880785 1.1571221 1.0331315
2.5884738 1.1846114 1.0373915
2.588871 1.2123299 1.0417668
2.5892742 1.2402865 1.0462605
2.5896788 1.2684865 1.0508734
2.5900867 1.2969382 1.0556084
2.5905001 1.3256507 1.0604687
2.5517609 -1.3627512 1.0831757
2.5521681 -1.3343714 1.0783458
2.5525732 -1.3062421 1.0736412
2.5529745 -1.278355 1.0690591
2.5533714 -1.2507023 1.064597
2.5537639 -1.2232767 1.0602525
2.5541553 -1.1960731 1.0560248
2.5545447 -1.1690838 1.0519115
2.5549273 -1.1423004 1.0479087
2.5553098 -1.1157191 1.0440171
2.5556898 -1.0893327 1.040234
2.5560656 -1.0631341 1.0365567
2.5564396 -1.0371186 1.0329849
2.5568111 -1.0112796 1.0295161
2.5571804 -0.98561186 1.0261493
2.5575447 -0.9601084 1.0228814
2.5713437 -0.93967545 1.025069
2.5844293 -0.91887826 1.0270375
2.59238 -0.8962065 1.0270381
2.600132 -0.87346596 1.0270387
2.6076846 -0.85065848 1.0270394
2.6150372 -0.82778567 1.02704
2.622189 -0.80484933 1.0270407
2.6291394 -0.78185111 1.0270412
2.5607488 -0.73716247 0.99776459
2.5610969 -0.71303129 0.9954285
2.5614414 -0.68901044 0.99317861
2.6314168 -0.68317413 1.0179516
2.6317685 -0.65871489 1.0158166
2.6321192 -0.63435638 1.0137684
2.632467 -0.61009359 1.0118053
2.6328135 -0.58592272 1.009927
2.6331611 -0.56184018 1.0081339
2.6335061 -0.53784078 1.0064237
2.5641525 -0.50032139 0.97820711
2.5644844 -0.47710755 0.97670192
2.5648181 -0.45396376 0.97527713
2.5664282 -0.43110016 0.97441614
2.6352139 -0.41895542 0.99910086
2.6355529 -0.39537305 0.99787807
2.6358905 -0.37184644 0.9967345
2.6362281 -0.34837198 0.99567002
2.636565 -0.32494584 0.9946841
2.6368995 -0.30156404 0.99377567
2.6372361 -0.27822337 0.99294591
2.5677736 -0.24817389 0.96593708
2.5681009 -0.22551978 0.96528012
2.5684257 -0.20289452 0.96469718
2.5687499 -0.18029486 0.96418875
2.6389058 -0.16200429 0.98995143
2.6392369 -0.138832 0.98958147
2.6395702 -0.11567537 0.98928851
2.6399035 -0.09253066 0.98907173
2.6402352 -0.06939429 0.9889304
2.6405685 -0.046262782 0.98886549
2.6409006 -0.023132525 0.98887604
2.641232 0 0.98896223
2.5716634 0.022526052 0.96295035
2.5719869 0.045061231 0.96318233
2.5723116 0.067609027 0.96348882
2.6425624 0.09262386 0.99006796
2.6428964 0.11582114 0.9905352
2.643229 0.139042 0.99107832
2.6435628 0.16229019 0.99169838
2.6438985 0.18556936 0.99239606
2.6442335 0.20888302 0.9931705
2.6445708 0.23223503 0.99402308
2.6449072 0.25562882 0.99495298
2.5752437 0.27168331 0.96960515
2.575573 0.29455051 0.97066331
2.575901 0.31746924 0.97179776
2.6462584 0.34969747 0.99945837
2.6465979 0.37335694 1.0007834
2.6469388 0.39708111 1.002189
2.6472807 0.42087385 1.0036758
2.647624 0.44473916 1.0052444
2.6479664 0.46868071 1.0068945
2.6483128 0.49270335 1.0086285
2.6256161 0.51231426 1.001655
2.578907 0.52669007 0.98555809
2.5792468 0.55033636 0.98749226
2.5795879 0.57407761 0.98951018
2.6500559 0.6141699 1.0185657
2.6504099 0.63876456 1.0208131
2.6507661 0.66346997 1.0231494
2.6511221 0.68829006 1.0255744
2.6488802 0.71253085 1.0270823
2.642539 0.73570544 1.0270828
2.6359954 0.75882375 1.0270835
2.5835958 0.76830739 1.0092502
2.5827315 0.79273832 1.0115863
2.5830877 0.81767207 1.014492
2.6078031 0.8506971 1.027086
2.6002533 0.87350678 1.0270867
2.592504 0.89624935 1.0270873
2.5859876 0.91943228 1.0276568
2.584913 0.94463426 1.0304785
2.5852842 0.97052193 1.0339757
2.5856588 0.99658823 1.037577
2.5860362 1.0228388 1.0412837
2.5864162 1.0492797 1.0450975
2.586798 1.0759165 1.0490197
2.5871849 1.1027571 1.0530534
2.5875731 1.1298062 1.0571988
2.5879633 1.1570706 1.0614585
2.5883594 1.184559 1.0658357
2.5887592 1.2122775 1.0703319
2.5891585 1.240231 1.0749474
2.5895646 1.2684305 1.0796874
2.5899742 1.2968819 1.0845529
2.5540428 -1.1960204 1.0843916
2.5544293 -1.169031 1.0801666
2.5548153 -1.1422503 1.0760578
2.555197 -1.1156698 1.0720613
2.5555768 -1.0892844 1.0681764
2.5559518 -1.0630869 1.0644002
2.5563273 -1.037073 1.060733
2.5566964 -1.0112343 1.05717
2.5570655 -0.98556751 1.0537125
2.5574324 -0.96006626 1.0503581
2.5577979 -0.93472528 1.0471053
2.5581577 -0.90953749 1.043951
2.5585177 -0.88449997 1.0408963
2.558876 -0.8596068 1.037939
2.559233 -0.83485293 1.0350778
2.559586 -0.8102327 1.0323106
2.5599356 -0.78574139 1.0296363
2.5614772 -0.76172972 1.0275333
2.5606351 -0.73712981 1.0245661
2.5609829 -0.71299952 1.0221671
2.5613277 -0.6889798 1.0198568
2.5845516 -0.67100692 1.0267243
2.5903306 -0.64834332 1.0267247
2.595912 -0.6256302 1.0267254
2.6012936 -0.60286891 1.0267259
2.6064763 -0.58006155 1.0267267
2.6114585 -0.55720943 1.0267272
2.6162405 -0.53431463 1.0267278
2.5640373 -0.50029898 1.0044827
2.5643718 -0.4770866 1.0029382
2.5647047 -0.45394367 1.0014747
2.5663147 -0.43108112 1.0005906
2.635097 -0.41893685 1.0259383
2.6354353 -0.39535543 1.0246824
2.6357734 -0.3718299 1.0235082
2.6361108 -0.34835649 1.0224152
2.6364472 -0.32493129 1.0214025
2.6367836 -0.30155078 1.0204705
2.6371181 -0.27821094 1.0196177
2.567661 -0.24816303 0.99188423
2.567986 -0.22550967 0.99120861
2.56831 -0.20288539 0.99060971
2.5686343 -0.18028674 0.99008775
2.6387873 -0.16199701 1.0165424
2.6391206 -0.13882588 1.0161633
2.6394534 -0.11567024 1.0158625
2.6397865 -0.092526563 1.0156398
2.6401184 -0.069391221 1.0154947
2.64045 -0.046260707 1.0154275
2.6407835 -0.023131499 1.0154388
2.6411157 0 1.0155276
2.5715494 0.022525053 0.98881674
2.5718737 0.045059249 0.98905534
2.5721962 0.067605995 0.98936909
2.6424458 0.092619769 1.016663
2.6427796 0.11581602 1.0171427
2.6431129 0.1390359 1.0177006
2.6434462 0.16228302 1.0183372
2.6437805 0.18556108 1.0190531
2.6441154 0.2088737 1.0198483
2.6444511 0.23222451 1.0207231
2.6447871 0.2556172 1.0216779
2.5751288 0.27167118 0.99565005
2.5754564 0.29453722 0.99673599
2.5757868 0.31745517 0.99790174
2.6461391 0.34968171 1.0263046
2.6441288 0.37300861 1.0267527
2.6407619 0.39615446 1.0267534
2.6371925 0.41926998 1.0267541
2.6334207 0.44235334 1.0267547
2.6294463 0.46540272 1.0267553
2.6252711 0.48841655 1.026756
2.6208935 0.51139283 1.0267566
2.5787928 0.5266667 1.0120318
2.5791326 0.55031204 1.0140179
2.5794744 0.57405233 1.0160903
2.6013777 0.60288841 1.026759
2.5959988 0.62565112 1.0267597
2.5904205 0.6483658 1.0267602
2.5846441 0.67103094 1.0267611
2.5819228 0.69451976 1.0280573
2.5815518 0.71872604 1.0303767
2.5819056 0.74325293 1.0330769
2.5822592 0.76790982 1.03587
2.5826159 0.79270285 1.0387586
2.582973 0.81763583 1.0417429
2.5833361 0.84271568 1.0448263
2.583698 0.86794531 1.0480074
2.5840623 0.89333105 1.0512888
2.584424 0.91887635 1.05467
2.5847981 0.9445923 1.0581586
2.58517 0.97047901 1.0617501
2.5855441 0.99654406 1.065448
2.5859208 1.0227932 1.069254
2.5863011 1.049233 1.0731703
2.5866849 1.0758696 1.0771986
2.5870683 1.1027074 1.0813392
2.5877166 1.1298689 1.0857053
2.5565829 -1.0111895 1.0850102
2.5569522 -0.98552388 1.0814618
2.5573187 -0.96002364 1.0780188
2.5576813 -0.93468267 1.0746791
2.5580449 -0.90949744 1.0714434
2.5584044 -0.88446087 1.068308
2.5587621 -0.85956854 1.0652726
2.5591166 -0.83481497 1.062335
2.5594711 -0.8101964 1.0594957
2.5598228 -0.78570676 1.0567517
2.5601726 -0.76134175 1.0541025
2.5605209 -0.73709691 1.0515473
2.5608664 -0.7129671 1.0490843
2.5612128 -0.68894887 1.0467138
2.5615554 -0.66503662 1.0444331
2.5618992 -0.64122707 1.0422431
2.5622401 -0.61751509 1.0401415
2.562578 -0.59389627 1.0381269
2.5629165 -0.5703674 1.0362004
2.5632551 -0.54692417 1.0343606
2.5635898 -0.52356178 1.0326055
2.5639238 -0.5002768 1.0309355
2.5642576 -0.47706535 1.0293499
2.5645885 -0.45392311 1.0278473
2.566201 -0.43106201 1.0269408
2.5685897 -0.40836328 1.026426
2.5720694 -0.38584957 1.0264264
2.575352 -0.36330622 1.026427
2.5784366 -0.34073496 1.0264276
2.5813239 -0.31813759 1.0264282
2.584013 -0.29551575 1.0264288
2.5865037 -0.2728712 1.0264294
2.5675454 -0.24815185 1.0180044
2.5678713 -0.2254996 1.0173115
2.5681961 -0.20287639 1.016697
2.5685203 -0.18027873 1.0161613
2.595978 -0.15936892 1.0264325
2.597276 -0.13662472 1.0264331
2.5983751 -0.11387005 1.0264339
2.5992739 -0.091106571 1.0264344
2.5999739 -0.068336084 1.026435
2.6004744 -0.04556033 1.0264356
2.600775 -0.022781052 1.0264363
2.6008768 0 1.026437
2.5714352 0.022524055 1.0148568
2.571759 0.045057241 1.0151014
2.5720816 0.067602985 1.0154235
2.5992866 0.091107011 1.0264394
2.5983911 0.11387075 1.0264403
2.5972953 0.13662574 1.0264407
2.5960004 0.15937029 1.0264413
2.5945063 0.18210264 1.0264419
2.592813 0.20482102 1.0264424
2.5909216 0.22752379 1.0264432
2.5888307 0.25020906 1.0264438
2.5750136 0.27165902 1.0218697
2.5753431 0.29452422 1.022985
2.5756717 0.31744096 1.0241808
2.5784836 0.34074116 1.0264462
2.5775044 0.36360988 1.027285
2.5768132 0.38656121 1.0283196
2.5769989 0.40970021 1.0297863
2.5773315 0.43293169 1.0313951
2.5776682 0.45623818 1.0330894
2.5780017 0.47962239 1.0348672
2.5783408 0.50308985 1.0367323
2.5786774 0.52664316 1.0386828
2.5790172 0.55028743 1.0407213
2.579355 0.57402575 1.0428466
2.5797036 0.59786522 1.0450647
2.5800517 0.62180775 1.0473721
2.5803914 0.64585555 1.0497663
2.5807405 0.67001742 1.0522555
2.5810864 0.69429475 1.0548358
2.5814419 0.71869552 1.0575132
2.5817897 0.74321961 1.060282
2.5821457 0.76787615 1.0631496
2.5825021 0.79266793 1.0661143
2.5828578 0.81759936 1.0691766
2.5832191 0.84267747 1.0723404
2.5835812 0.86790603 1.0756053
2.5839458 0.8932907 1.0789733
2.5843134 0.91883701 1.082446
2.5862255 0.9451139 1.0866728
2.5597067 -0.78567111 1.0840528
2.5600584 -0.76130784 1.081336
2.5604064 -0.73706394 1.0787146
2.5607541 -0.71293586 1.0761888
2.5610993 -0.68891835 1.0737566
2.5614417 -0.66500705 1.071417
2.5617836 -0.64119816 1.0691696
2.5621238 -0.61748701 1.0670133
2.5624633 -0.59386969 1.0649475
2.5628021 -0.57034194 1.0629712
2.5631392 -0.5468995 1.0610834
2.5634742 -0.52353817 1.059283
2.563808 -0.50025421 1.0575697
2.5641432 -0.47704408 1.0559438
2.5644758 -0.45390317 1.0544031
2.564806 -0.43082768 1.0529468
2.5651374 -0.40781441 1.051576
2.5654678 -0.38485923 1.0502892
2.5657966 -0.36195824 1.0490855
2.5661225 -0.33910766 1.0479641
2.5664499 -0.31630445 1.0469261
2.5667772 -0.29354462 1.0459707
2.5671043 -0.27082461 1.0450972
2.5674312 -0.2481408 1.0443053
2.5677557 -0.22548945 1.0435939
2.5680802 -0.20286724 1.0429635
2.5684063 -0.18027073 1.0424147
2.5687304 -0.15769616 1.0419456
2.5690544 -0.13514018 1.041557
2.5693767 -0.11259924 1.0412478
2.5697012 -0.090070017 1.0410197
2.5700254 -0.067548938 1.0408714
2.5703487 -0.045032527 1.0408026
2.5706713 -0.022517363 1.0408134
2.5709946 0 1.0409044
2.5713184 0.022523031 1.0410753
2.5716422 0.045055192 1.0413264
2.5719669 0.067599967 1.0416577
2.5722916 0.090160817 1.0420691
2.5726151 0.11274116 1.0425602
2.5729392 0.13534454 1.0431319
2.5732658 0.1579746 1.0437853
2.5735917 0.18063469 1.0445193
2.5739176 0.20332837 1.0453343
2.5742428 0.22605912 1.0462303
2.5745707 0.24883083 1.0472093
2.5748994 0.27164698 1.0482707
2.5752275 0.29451102 1.0494142
2.5755563 0.31742674 1.0506409
2.5758865 0.34039798 1.0519515
2.5762174 0.36342832 1.0533464
2.5765495 0.38652164 1.054826
2.5768833 0.40968183 1.0563912
2.5772166 0.43291238 1.0580418
2.5775506 0.45621741 1.0597789
2.5778885 0.47960132 1.0616043
2.5782256 0.50306737 1.063517
2.5785625 0.52661961 1.0655178
2.5789013 0.55026269 1.0676086
2.5792434 0.57400095 1.0697907
2.5795853 0.59783781 1.0720633
2.5799296 0.62177831 1.0744287
2.5802753 0.64582652 1.0768871
2.5806231 0.66998696 1.0794402
2.580971 0.69426376 1.082088
2.5813744 0.71867669 1.0848548
2.5636916 -0.50023144 1.0843923
2.5640268 -0.47702241 1.0827252
2.5643585 -0.45388243 1.0811449
2.5646908 -0.43080837 1.0796527
2.5650222 -0.40779611 1.0782471
2.5653508 -0.38484168 1.0769268
2.5656805 -0.36194187 1.075693
2.5660083 -0.33909261 1.0745441
2.5663362 -0.31629041 1.0734799
2.566663 -0.29353157 1.0725
2.5669897 -0.27081251 1.0716043
2.5673141 -0.2481295 1.0707912
2.5676389 -0.22547919 1.0700619
2.567965 -0.20285812 1.0694162
2.5682888 -0.18026249 1.0688525
2.5686133 -0.15768898 1.0683717
2.5689375 -0.13513404 1.0679733
2.5692618 -0.11259419 1.0676571
2.5695863 -0.090065986 1.0674232
2.5699084 -0.067545861 1.0672703
2.5702329 -0.045030501 1.0672003
2.5705559 -0.022516353 1.0672116
2.5708792 0 1.0673048
2.571203 0.022522019 1.0674802
2.5715268 0.045053169 1.0677376
2.571851 0.06759692 1.0680771
2.5721745 0.090156712 1.0684984
2.5725002 0.11273611 1.0690029
2.5728245 0.1353385 1.0695891
2.573149 0.15796743 1.0702584
2.5734746 0.18062647 1.0710107
2.5738008 0.20331915 1.0718466
2.5741282 0.22604905 1.0727663
2.5744541 0.24881956 1.0737692
2.5747833 0.27163473 1.0748577
2.5751112 0.2944977 1.0760301
2.5754402 0.31741244 1.077288
2.5757706 0.34038264 1.078632
2.5761018 0.36341199 1.0800623
2.5764339 0.38650432 1.0815796
2.5767663 0.40966323 1.0831839
2.5777423 0.43300068 1.0851469
0.34980974 -0.14549497 0.17316994
0.3510707 -0.1424254 0.17316994
0.35230473 -0.13934492 0.17316994
0.35351175 -0.13625373 0.17316994
0.35230476 0.13934492 0.17316994
0.3510707 0.1424254 0.17316994
0.34980974 0.14549497 0.17316994
0.34852192 0.14855336 0.17316994
0.33919725 -0.14810292 0.17313145
0.34048149 -0.14512622 0.17313145
0.34173959 -0.14213838 0.17313145
0.34297147 -0.13913962 0.17313145
0.34417704 -0.1361302 0.17313145
0.3453562 -0.13311034 0.17313145
0.34650886 -0.13008025 0.17313145
0.34763494 -0.12704019 0.17313145
0.34873435 -0.12399039 0.17313145
0.34980699 -0.12093107 0.17313145
0.35085282 -0.11786248 0.17313145
0.3518717 -0.11478484 0.17313145
0.35286361 -0.11169839 0.17313145
0.3518717 0.11478484 0.17313145
0.35085282 0.11786248 0.17313145
0.34980699 0.12093107 0.17313145
0.34873435 0.12399039 0.17313145
0.34763494 0.12704019 0.17313145
0.34650886 0.13008025 0.17313145
0.3453562 0.13311034 0.17313145
0.34417704 0.1361302 0.17313145
0.34297147 0.13913962 0.17313145
0.34173959 0.14213838 0.17313145
0.34048149 0.14512622 0.17313145
0.33919725 0.14810292 0.17313145
0.33788702 0.15106827 0.17313145
0.3302061 -0.14763416 0.17309439
0.33148655 -0.14473622 0.17309439
0.33274159 -0.14182718 0.17309439
0.33397108 -0.13890725 0.17309439
0.33517495 -0.13597667 0.17309439
0.33635312 -0.13303566 0.17309439
0.33750549 -0.13008444 0.17309439
0.33863193 -0.12712325 0.17309439
0.33973241 -0.1241523 0.17309439
0.34080684 -0.12117182 0.17309439
0.34185511 -0.11818204 0.17309439
0.34287715 -0.1151832 0.17309439
0.34387287 -0.11217552 0.17309439
0.34484223 -0.10915924 0.17309439
0.34578514 -0.10613458 0.17309439
0.3467015 -0.10310178 0.17309439
0.34759128 -0.10006107 0.17309439
0.34845439 -0.097012676 0.17309439
0.34929073 -0.093956843 0.17309439
0.35010031 -0.090893805 0.17309439
0.35088301 -0.087823793 0.17309439
0.35163879 -0.084747039 0.17309439
0.35236761 -0.081663787 0.17309439
0.35306939 -0.078574263 0.17309439
0.35236761 0.081663787 0.17309441
0.35163879 0.084747039 0.17309441
0.35088301 0.087823793 0.17309441
0.35010031 0.090893805 0.17309441
0.34929073 0.093956843 0.17309441
0.34845439 0.097012676 0.17309441
0.34759128 0.10006107 0.17309441
0.3467015 0.10310178 0.17309441
0.34578514 0.10613458 0.17309441
0.34484226 0.10915924 0.17309441
0.34387287 0.11217552 0.17309441
0.34287715 0.1151832 0.17309441
0.34185511 0.11818204 0.17309441
0.34080684 0.12117182 0.17309441
0.33973241 0.1241523 0.17309441
0.33863193 0.12712325 0.17309441
0.33750549 0.13008444 0.17309441
0.33635312 0.13303566 0.17309441
0.33517495 0.13597667 0.17309441
0.33397108 0.13890725 0.17309441
0.33274159 0.14182718 0.17309441
0.33148655 0.14473622 0.17309441
0.3302061 0.14763416 0.17309441
0.32890031 0.15052077 0.17309441
0.32152936 -0.14714746 0.1730587
0.32280588 -0.14432554 0.1730587
0.32405764 -0.14149256 0.1730587
0.32528454 -0.1386487 0.1730587
0.3264865 -0.13579422 0.1730587
0.32766339 -0.13292933 0.1730587
0.32881516 -0.13005422 0.1730587
0.32994169 -0.12716913 0.1730587
0.33104289 -0.1242743 0.1730587
0.33211872 -0.12136993 0.1730587
0.33316907 -0.11845625 0.1730587
0.33419383 -0.11553348 0.1730587
0.33519298 -0.11260185 0.1730587
0.33616638 -0.10966157 0.1730587
0.33711404 -0.10671289 0.1730587
0.33803579 -0.10375601 0.1730587
0.33893162 -0.10079118 0.1730587
0.33980146 -0.097818606 0.1730587
0.34064519 -0.094838537 0.1730587
0.34146282 -0.09185119 0.1730587
0.34225425 -0.088856794 0.1730587
0.34301943 -0.085855581 0.1730587
0.34375829 -0.082847781 0.1730587
0.34447074 -0.079833627 0.1730587
0.34515679 -0.076813348 0.1730587
0.34581637 -0.073787175 0.1730587
0.3464494 -0.07075534 0.1730587
0.34705585 -0.067718074 0.1730587
0.34763569 -0.064675614 0.1730587
0.34818885 -0.061628196 0.1730587
0.34871528 -0.058576047 0.1730587
0.34921497 -0.055519406 0.1730587
0.34968787 -0.052458502 0.1730587
0.35013396 -0.049393576 0.1730587
0.35055315 -0.04632486 0.1730587
0.35094547 -0.043252591 0.1730587
0.35131085 -0.040176999 0.1730587
0.35164928 -0.03709833 0.1730587
0.35196075 -0.03401681 0.1730587
0.35224518 -0.030932683 0.1730587
0.35250261 -0.027846184 0.1730587
0.35273299 -0.024757545 0.1730587
0.35293633 -0.021667009 0.1730587
0.35311255 -0.01857481 0.1730587
0.35326171 -0.015481186 0.1730587
0.35311255 0.01857481 0.1730587
0.35293633 0.021667009 0.1730587
0.35273299 0.024757545 0.1730587
0.35250261 0.027846184 0.1730587
0.35224518 0.030932683 0.1730587
0.35196075 0.03401681 0.1730587
0.35164928 0.03709833 0.1730587
0.35131085 0.040176999 0.1730587
0.35094547 0.043252591 0.1730587
0.35055315 0.04632486 0.1730587
0.35013396 0.049393576 0.1730587
0.34968787 0.052458502 0.1730587
0.34921497 0.055519406 0.1730587
0.34871528 0.058576047 0.1730587
0.34818885 0.061628196 0.1730587
0.34763569 0.064675614 0.1730587
0.34705585 0.067718074 0.1730587
0.3464494 0.07075534 0.1730587
0.34581637 0.073787175 0.1730587
0.34515679 0.076813348 0.1730587
0.34447074 0.079833627 0.1730587
0.34375829 0.082847781 0.1730587
0.34301943 0.085855581 0.1730587
0.34225425 0.088856794 0.1730587
0.34146282 0.09185119 0.1730587
0.34064519 0.094838537 0.1730587
0.33980146 0.097818613 0.1730587
0.33893162 0.10079118 0.1730587
0.33803579 0.10375601 0.1730587
0.33711404 0.10671289 0.1730587
0.33616638 0.10966157 0.1730587
