# .PCD v0.7 - Point Cloud Data file format
VERSION 0.7
FIELDS x y z
SIZE 4 4 4
TYPE F F F
COUNT 1 1 1
WIDTH 105
HEIGHT 1
VIEWPOINT 0 0 0 1 0 0 0
POINTS 105
DATA ascii
2.6254816 -0.83109182 0.6592831
2.6256633 -0.80591571 0.65753084
2.6258404 -0.78087002 0.65583712
2.6260185 -0.7559517 0.65420276
2.6130421 -0.90334958 0.66189295
2.6251197 -0.88186014 0.66297019
2.6253009 -0.85640514 0.6610961
2.6259115 -0.75592089 0.67967445
2.6129375 -0.90331334 0.68766463
2.6250124 -0.88182408 0.68878317
2.6251931 -0.85636997 0.686836
2.6253753 -0.8310582 0.68495286
2.6255546 -0.80588228 0.68313169
2.6257336 -0.78083825 0.68137258
2.6254456 -0.8058489 0.70884293
2.6256261 -0.7808063 0.70701796
2.6258018 -0.7558893 0.70525533
2.6128316 -0.90327674 0.71354711
2.6249044 -0.88178778 0.71470731
2.6250844 -0.85633451 0.71268672
2.6252663 -0.83102369 0.71073258
2.6127262 -0.90324032 0.73954576
2.6249778 -0.8562997 0.73865372
2.6251576 -0.83098924 0.73662782
2.6253364 -0.80581534 0.73466921
2.6255164 -0.78077364 0.73277766
2.6256938 -0.75585824 0.73095131
2.6247959 -0.88175136 0.74074751
2.6254067 -0.7807411 0.75865698
2.6255858 -0.75582713 0.75676662
2.6126196 -0.90320343 0.76566482
2.6246848 -0.88171411 0.76690793
2.6248689 -0.85626417 0.76474082
2.6250482 -0.83095461 0.76264322
2.6252284 -0.80578226 0.76061583
2.6249387 -0.83092004 0.78878379
2.6251192 -0.8057487 0.78668696
2.6252964 -0.78070825 0.78466064
2.6254756 -0.75579542 0.78270549
2.6125126 -0.90316647 0.79190952
2.624578 -0.88167816 0.79319543
2.624758 -0.85622799 0.7909528
2.6253645 -0.75576347 0.80877334
2.6124048 -0.90312916 0.81828475
2.6244669 -0.88164085 0.81961256
2.6246483 -0.85619223 0.81729579
2.6248288 -0.83088523 0.81505442
2.6250088 -0.80571485 0.81288761
2.6251879 -0.78067595 0.81079435
2.6248965 -0.80568033 0.83922261
2.6250772 -0.78064305 0.83706206
2.6252537 -0.75573146 0.83497542
2.6122971 -0.90309197 0.84479588
2.6243556 -0.88160342 0.84616578
2.6245368 -0.85615581 0.84377378
2.6247191 -0.83085048 0.84146041
2.6246064 -0.83081484 0.86800593
2.6247873 -0.80564684 0.8656987
2.6249642 -0.78060943 0.86346871
2.6251423 -0.75569946 0.86131686
2.6121883 -0.90305442 0.8714478
2.6242442 -0.88156605 0.87286019
2.6244266 -0.85611993 0.87039316
2.6250305 -0.75566733 0.88780278
2.6120794 -0.90301669 0.89824599
2.6241322 -0.88152838 0.89970088
2.6243141 -0.85608321 0.89715791
2.6244938 -0.83077919 0.89469725
2.6246743 -0.80561215 0.89231896
2.6248524 -0.78057623 0.89002079
2.6245613 -0.80557746 0.91908991
2.6247389 -0.78054243 0.91672266
2.6249187 -0.75563508 0.91443861
2.6119692 -0.90297866 0.92519563
2.6240196 -0.88149059 0.9266935
2.6241996 -0.85604584 0.92407346
2.6243823 -0.83074385 0.92154008
2.6242721 -0.83070898 0.94854009
2.6244507 -0.80554348 0.94601786
2.6246319 -0.78051066 0.94358265
2.624809 -0.75560355 0.94123083
2.6118579 -0.90294009 0.9523021
2.6239104 -0.88145393 0.95384485
2.6240897 -0.85601002 0.95114779
2.6246946 -0.75557053 0.96818221
2.6117465 -0.90290165 0.97957152
2.6239786 -0.85597372 0.97838444
2.6241589 -0.83067316 0.97570127
2.6243382 -0.80550897 0.97310722
2.6245177 -0.78047669 0.97060156
2.6237957 -0.88141543 0.98115742
2.6244009 -0.78044194 0.99778664
2.6245811 -0.75553793 0.99530077
2.6116347 -0.90286297 1.0070095
2.6236823 -0.88137722 1.0086393
2.6238627 -0.85593599 1.0057878
2.6240425 -0.83063626 1.0030292
2.6242242 -0.80547398 1.0003635
2.5923183 -0.89618516 1.0270138
2.60007 -0.87344515 1.0270143
2.6076226 -0.85063827 1.027015
2.614975 -0.827766 1.0270157
2.6221266 -0.80483013 1.0270163
2.6242855 -0.78040761 1.0251451
2.6244648 -0.75550443 1.0225908
