# .PCD v0.7 - Point Cloud Data file format
VERSION 0.7
FIELDS x y z
SIZE 4 4 4
TYPE F F F
COUNT 1 1 1
WIDTH 155
HEIGHT 1
VIEWPOINT 0 0 0 1 0 0 0
POINTS 155
DATA ascii
2.9296484 -0.70606267 -0.27459356
2.9046876 -0.70004696 -0.24574296
2.8791234 -0.69388586 -0.2173405
3.046901 0.81959569 -0.20363261
3.0369525 0.84551358 -0.2034549
3.0450809 0.90554339 -0.20503083
2.8670213 -0.71759719 -0.19074126
2.8816934 -0.66785365 -0.19090964
2.8888521 -0.58999008 -0.19029085
2.8925598 -0.56440079 -0.19020215
2.895292 -0.53865242 -0.19006425
2.9432549 -0.10316336 -0.19007006
2.9461935 -0.077435903 -0.19020873
2.9491484 -0.051669102 -0.19036298
2.9521217 -0.025858613 -0.19053297
2.9551663 0 -0.19072217
2.9582317 0.025912132 -0.19092731
2.9613218 0.051882379 -0.19114874
2.9644339 0.077915318 -0.19138634
2.9675698 0.10401562 -0.19164027
2.9707291 0.13018793 -0.19191056
2.9739151 0.15643711 -0.19219755
2.9771378 0.18276858 -0.1925019
2.9804552 0.20919152 -0.19282748
2.9838052 0.23570772 -0.19317038
2.9871879 0.26232222 -0.19353071
2.9906046 0.2890403 -0.19390866
2.9941928 0.31588164 -0.19431326
2.9978576 0.34284431 -0.19473851
3.0015643 0.36993051 -0.19518231
3.0053151 0.39714608 -0.19564492
3.0091681 0.42450491 -0.19613028
3.0133281 0.45204508 -0.19665197
3.018023 0.47981575 -0.19722506
3.0228567 0.50776953 -0.19782402
3.0301812 0.53633136 -0.19860317
2.8583448 -0.68887806 -0.18975529
2.8638909 -0.63734818 -0.18935312
2.8750033 -0.6134423 -0.18972529
2.8980303 -0.51294112 -0.18994178
2.9007754 -0.48726273 -0.18983467
2.9035318 -0.46161354 -0.18974318
2.906296 -0.43598863 -0.18966697
2.9090693 -0.41038391 -0.18960609
2.9118526 -0.38479519 -0.18956053
2.9146459 -0.35921815 -0.18953027
2.9174511 -0.33364877 -0.18951538
2.9202671 -0.30808261 -0.18951572
2.923094 -0.28251541 -0.18953131
2.9259348 -0.25694323 -0.18956231
2.9287853 -0.23136137 -0.18960841
2.9316506 -0.20576605 -0.18966997
2.9345295 -0.18015283 -0.18974684
2.9374237 -0.15451755 -0.18983917
2.9403315 -0.12885579 -0.18994687
3.0081539 0.53243268 -0.17015836
3.011126 0.56020266 -0.17059749
3.0141101 0.58811784 -0.17105187
3.0171092 0.616184 -0.17152178
3.0201521 0.64441282 -0.17200908
3.023273 0.67281801 -0.17251585
3.0264504 0.70140213 -0.17304111
3.0296493 0.73016346 -0.17358305
3.0328701 0.75910813 -0.17414185
3.0361137 0.78824246 -0.17471784
3.0305896 0.81520808 -0.17480417
3.0247741 0.84212291 -0.17488748
3.046011 0.8768549 -0.17655268
3.0310209 0.90136224 -0.17613469
2.8766825 -0.74685055 -0.16554312
2.8638694 -0.71680832 -0.16443814
2.8570704 -0.68857092 -0.16369517
2.877641 -0.6669144 -0.16453274
2.8628464 -0.63711572 -0.1633615
2.8732936 -0.61307746 -0.16364492
2.8857894 -0.58936459 -0.1640563
2.889358 -0.56377602 -0.16397214
2.8922346 -0.53808355 -0.16386162
2.8951025 -0.51242292 -0.16376352
2.8979623 -0.48679018 -0.16367781
2.9008143 -0.46118149 -0.16360447
2.9036589 -0.43559304 -0.16354343
2.9064972 -0.41002107 -0.16349474
2.9093287 -0.38446164 -0.1634583
2.9121532 -0.35891095 -0.16343409
2.9149764 -0.33336574 -0.16342239
2.9177945 -0.30782175 -0.16342294
2.9206085 -0.2822752 -0.1634358
2.9234157 -0.256722 -0.16346079
2.926218 -0.23115857 -0.16349798
2.9290156 -0.2055811 -0.16354741
2.9318113 -0.17998596 -0.16360921
2.9345987 -0.15436895 -0.16368303
2.9373863 -0.12872672 -0.16376933
2.9401703 -0.10305525 -0.16386794
2.9429517 -0.077350698 -0.16397889
2.9457312 -0.051609233 -0.16410229
2.9485092 -0.02582697 -0.16423814
2.9512856 0 -0.16438648
2.9540644 0.02587563 -0.16454758
2.9568462 0.051803969 -0.16472149
2.9596298 0.077789053 -0.16490819
2.9624135 0.1038349 -0.16510765
2.9651992 0.12994559 -0.16531999
2.9679873 0.15612529 -0.16554534
2.970778 0.18237816 -0.16578375
2.9735711 0.20870836 -0.16603526
2.9763665 0.23512009 -0.16629995
2.979167 0.26161787 -0.16657808
2.9819729 0.28820604 -0.16686973
2.9847832 0.31488895 -0.16717492
2.9876683 0.34167901 -0.16749771
2.9905643 0.36857477 -0.16783464
2.9934707 0.39558083 -0.16818576
2.9963858 0.42270169 -0.1685511
2.9993119 0.44994244 -0.16893092
3.0022476 0.47730771 -0.16932525
3.0051949 0.50480276 -0.16973436
2.9236221 -0.62381613 -0.14011486
3.0413396 0.81809974 -0.14761481
3.0336077 0.84458232 -0.14759295
3.063417 0.8818655 -0.14941333
3.0392959 0.90382308 -0.1486173
2.8728065 -0.69236344 -0.1385038
2.8787794 -0.64066154 -0.1382294
3.0899777 0.83118308 -0.12174469
3.0580754 0.85139436 -0.12077694
3.0845127 0.88793838 -0.12212355
3.0640681 0.91118979 -0.12162545
2.894866 -0.69767988 -0.1132957
2.9196887 -0.67665935 -0.11403084
2.9008384 -0.6455707 -0.11306944
2.9279902 -0.62474811 -0.11391009
3.0919893 0.83172417 -0.093593657
3.0992696 0.86286312 -0.094039209
3.0882545 0.8890155 -0.093937665
2.9172499 -0.70307451 -0.087714694
2.9324548 -0.67961794 -0.087989502
2.9236298 -0.65064281 -0.087550342
2.9722073 -0.63418281 -0.088835277
2.9409363 -0.70878309 -0.06176877
2.9368396 -0.6806342 -0.061555147
2.953254 -0.65723556 -0.061776154
2.9721005 -0.63415998 -0.06205181
3.1059067 0.83546788 -0.065672182
3.1064768 0.86486971 -0.065841898
3.121032 0.89845115 -0.066314653
2.9406297 -0.68151259 -0.035043944
2.953146 -0.65721154 -0.035123151
2.9915211 -0.63830376 -0.035511702
3.110774 0.8660661 -0.037487902
3.1403966 0.90402567 -0.037938856
2.9444311 -0.68239355 -0.0084696673
2.9530399 -0.65718794 -0.0084775472
3.1150839 0.867266 -0.0090611801
