# .PCD v0.7 - Point Cloud Data file format
VERSION 0.7
FIELDS x y z
SIZE 4 4 4
TYPE F F F
COUNT 1 1 1
WIDTH 105
HEIGHT 1
VIEWPOINT 0 0 0 1 0 0 0
POINTS 105
DATA ascii
2.6361265 0.65980572 0.65055996
2.636301 0.68444216 0.65205753
2.6364784 0.70919484 0.65361285
2.6366549 0.73406726 0.65522552
2.6368346 0.75906533 0.65689725
2.6370132 0.78419256 0.65862769
2.622174 0.80484474 0.65665704
2.6360161 0.65977812 0.67588907
2.6361928 0.68441415 0.67744559
2.6363685 0.70916528 0.679061
2.6365471 0.73403722 0.68073696
2.6367249 0.75903374 0.68247336
2.6369059 0.78416067 0.68427181
2.6220636 0.80481076 0.68222338
2.6359081 0.65975106 0.7013281
2.6360846 0.68438601 0.70294309
2.6362605 0.70913625 0.70461935
2.6364396 0.7340073 0.70635855
2.6366172 0.75900275 0.70816022
2.6219537 0.80477709 0.70790017
2.6367967 0.78412819 0.71002597
2.6357987 0.6597237 0.72688061
2.6359758 0.68435776 0.72855467
2.6361518 0.70910698 0.73029202
2.6363308 0.73397708 0.73209465
2.6365077 0.75897121 0.7339617
2.6366892 0.78409624 0.73589599
2.6218426 0.80474305 0.73369157
2.6356893 0.65969628 0.75255191
2.635865 0.68432897 0.75428462
2.6360431 0.70907772 0.75608391
2.6362185 0.73394579 0.75794917
2.6363995 0.75894004 0.75988334
2.621731 0.80470872 0.75960249
2.6365774 0.78406298 0.76188493
2.6355796 0.65966886 0.77834666
2.6357553 0.68430054 0.78013873
2.635932 0.70904785 0.78199935
2.6361096 0.73391551 0.78392917
2.6362886 0.75890815 0.78592908
2.6364672 0.7840302 0.78799939
2.621619 0.80467439 0.78563809
2.6354699 0.65964139 0.80426985
2.635644 0.68427157 0.80612111
2.635823 0.70901853 0.80804437
2.635999 0.73388463 0.81003797
2.6361763 0.75887585 0.81210405
2.6363566 0.7839973 0.81424385
2.6215069 0.80463994 0.81180316
2.6353559 0.65961289 0.83032525
2.635534 0.68424308 0.83223778
2.6357093 0.70898795 0.8342222
2.6358876 0.7338537 0.83628112
2.6360655 0.7588439 0.83841425
2.6213932 0.80460507 0.83810258
2.636246 0.78396446 0.8406235
2.6352453 0.65958518 0.8565203
2.6354215 0.68421388 0.85849261
2.6355975 0.70895785 0.86053979
2.6357758 0.73382252 0.86266369
2.6359541 0.75881183 0.86486423
2.6361332 0.7839309 0.86714274
2.62128 0.80457032 0.86454189
2.6351328 0.65955698 0.88285863
2.6353071 0.68418419 0.88489091
2.6354852 0.70892769 0.88700181
2.6356621 0.73379087 0.8891905
2.6358423 0.75877964 0.89145941
2.6360199 0.78389716 0.89380741
2.6211658 0.80453521 0.8911261
2.6350212 0.65952909 0.9093464
2.6351962 0.6841554 0.91143996
2.6353726 0.70889735 0.91361356
2.6355493 0.73375946 0.91586781
2.6357284 0.75874686 0.91820437
2.6210504 0.8044998 0.91786039
2.6359079 0.7838639 0.92062354
2.6349101 0.65950125 0.93598896
2.6350858 0.68412673 0.93814409
2.6352639 0.70886821 0.94038206
2.6354401 0.73372906 0.94270217
2.635617 0.75871485 0.94510645
2.635797 0.78383094 0.94759667
2.620935 0.80446434 0.94475061
2.6347945 0.65947229 0.96279001
2.6349719 0.68409717 0.96500754
2.6351471 0.70883673 0.96730846
2.6353271 0.73369759 0.96969646
2.6355045 0.75868243 0.97216976
2.6356845 0.78379744 0.97473127
2.6208191 0.80442888 0.97180235
2.6346796 0.65944356 0.98975724
2.6348577 0.68406749 0.992037
2.6350331 0.70880604 0.99440247
2.6352093 0.73366481 0.99685597
2.6353889 0.75864917 0.99939936
2.6207018 0.80439287 0.99902076
2.6355681 0.78376281 1.0020323
2.6345646 0.65941483 1.0168959
2.6347392 0.68403667 1.0192368
2.634917 0.70877486 1.0216681
2.6350937 0.73363262 1.024189
2.6352737 0.75861597 1.0268023
2.629195 0.78186756 1.0270629
2.6205838 0.80435658 1.0264119
