# .PCD v0.7 - Point Cloud Data file format
VERSION 0.7
FIELDS x y z
SIZE 4 4 4
TYPE F F F
COUNT 1 1 1
WIDTH 106
HEIGHT 1
VIEWPOINT 0 0 0 1 0 0 0
POINTS 106
DATA ascii
2.635257 0.53819841 0.64390671
2.6341283 0.39515933 0.66252524
2.6342978 0.4188098 0.66346514
2.6344676 0.44252923 0.66445863
2.6346366 0.46632141 0.66550601
2.6348062 0.49019051 0.66660786
2.6349766 0.51414073 0.66776472
2.63515 0.53817648 0.66897762
2.6340196 0.39514306 0.68746108
2.6341891 0.41879252 0.68843633
2.6343577 0.44251075 0.68946695
2.6345267 0.46630192 0.69055361
2.6346982 0.49017042 0.69169748
2.6348689 0.51411968 0.69289798
2.635042 0.53815448 0.69415653
2.6339104 0.39512667 0.71250844
2.6340802 0.41877517 0.71351922
2.6342487 0.44249249 0.71458745
2.634418 0.4662827 0.71571386
2.6345878 0.49014989 0.71689886
2.6347606 0.51409858 0.7181437
2.634932 0.53813201 0.71944767
2.6338007 0.39511022 0.73767203
2.6339712 0.41875786 0.73871869
2.6341376 0.4424738 0.739824
2.6343093 0.46626344 0.74099088
2.634479 0.49012965 0.74221778
2.6346498 0.51407695 0.74350595
2.6348214 0.53810942 0.744856
2.6336908 0.39509371 0.76295656
2.6338611 0.41874033 0.76403916
2.6340282 0.44245541 0.7651825
2.6341996 0.46624404 0.76638931
2.6343677 0.49010894 0.76765776
2.634541 0.51405573 0.76899093
2.634711 0.53808683 0.7703867
2.6335804 0.39507717 0.78836703
2.6337488 0.41872251 0.7894851
2.633918 0.4424369 0.79066718
2.6340878 0.46622425 0.79191363
2.6342585 0.49008864 0.79322517
2.6344297 0.51403397 0.79460204
2.6345997 0.53806418 0.79604435
2.6334701 0.3950606 0.81390828
2.6336365 0.41870466 0.81506199
2.6338077 0.44241834 0.81628293
2.6339757 0.4662044 0.81756932
2.6341462 0.49006772 0.81892323
2.6343176 0.51401216 0.82034481
2.6344905 0.53804183 0.82183474
2.633357 0.39504364 0.83958465
2.6335258 0.41868705 0.84077549
2.6336949 0.44239944 0.84203434
2.6338651 0.46618485 0.84336197
2.6340363 0.49004728 0.84475881
2.6342058 0.51399034 0.84622467
2.6343784 0.53801894 0.84776145
2.6332452 0.39502686 0.8654024
2.6334121 0.41866899 0.86662924
2.6335835 0.44238073 0.86792755
2.6337521 0.46616486 0.86929548
2.6339233 0.4900263 0.87073529
2.6340933 0.51396835 0.87224633
2.6342664 0.53799605 0.87383056
2.6331332 0.39501005 0.89136624
2.6333003 0.41865122 0.89263004
2.6334701 0.44236165 0.89396673
2.6336389 0.4661448 0.89537573
2.63381 0.4900052 0.89685875
2.6339805 0.51394635 0.89841527
2.6341515 0.53797257 0.90004635
2.6330216 0.39499334 0.9174819
2.6331911 0.41863385 0.91878343
2.633359 0.442343 0.92015868
2.6335299 0.46612552 0.9216097
2.6336994 0.4899846 0.92313558
2.633872 0.51392519 0.92473853
2.6340413 0.5379501 0.92641675
2.6329069 0.39497611 0.94375336
2.6330764 0.41861561 0.94509214
2.633245 0.44232386 0.94650704
2.6334157 0.46610531 0.9479996
2.6335857 0.48996347 0.94956934
2.6337559 0.51390254 0.95121729
2.6339278 0.53792691 0.95294452
2.6327915 0.39495879 0.97018701
2.6329613 0.41859728 0.97156346
2.6331298 0.44230452 0.97301799
2.6333008 0.46608496 0.97455239
2.633471 0.48994213 0.97616619
2.6336417 0.51388025 0.97786051
2.6338136 0.53790361 0.97963613
2.6326776 0.39494169 0.9967894
2.6328435 0.41857859 0.9982022
2.6330142 0.44228509 0.99969739
2.6331835 0.46606418 1.0012733
2.6333542 0.48992038 1.0029315
2.6335249 0.51385742 1.0046722
2.6336977 0.53787994 1.0064969
2.6325612 0.39492425 1.0235649
2.6327274 0.41856012 1.0250157
2.6328983 0.4422656 1.0265511
2.6293905 0.46539283 1.0267335
2.6252148 0.48840609 1.0267341
2.6208382 0.51138198 1.0267348
2.6162598 0.53431857 1.0267354
